ply
format ascii 1.0
element vertex 1249
property float x
property float y
property float z
property float red
property float green
property float blue
end_header
1529 665 1215.076171875 173 168 191
1564 665 1236.5504150390625 171 169 191
1605 665 1263.7032470703125 170 172 195
1610 665 1266.516845703125 183 183 207
1611 665 1267.4549560546875 177 179 202
1617 665 1270.2696533203125 171 173 196
1618 665 1271.2081298828125 166 166 190
1648 665 1290.9365234375 182 182 208
1654 665 1293.758056640625 175 183 206
1674 665 1307.8780517578125 171 175 200
1699 665 1324.8475341796875 172 173 201
1713 665 1333.3424072265625 165 171 197
1737 665 1349.4061279296875 169 179 204
1754 665 1360.759033203125 164 171 200
1771 665 1373.0703125 165 181 204
1778 665 1376.8609619140625 158 174 199
1805 665 1395.8316650390625 164 178 205
1806 665 1396.7808837890625 165 181 207
1812 665 1400.578857421875 174 186 212
1819 665 1404.3778076171875 169 183 210
1820 665 1405.3277587890625 163 174 202
1840 665 1419.5848388671875 157 181 207
1842 665 1421.4869384765625 146 163 193
1848 665 1425.2918701171875 168 183 212
1864 665 1435.7611083984375 151 172 201
1865 665 1436.7132568359375 151 170 202
1877 665 1446.23828125 159 181 205
1882 665 1448.14404296875 160 184 210
1912 665 1470.0782470703125 151 171 196
1919 665 1474.850830078125 174 182 205
817 666 869.5401000976562 163 170 188
1069 666 966.0227661132812 179 184 203
1092 666 975.828369140625 180 185 205
1093 666 976.7210693359375 179 184 204
1120 666 990.1358642578125 186 191 211
1124 666 991.9279174804688 186 194 213
1132 666 994.6174926757812 190 197 216
1145 666 1001.7984008789062 188 193 212
1170 666 1013.4934692382812 192 194 215
1171 666 1014.3944091796875 184 186 207
1186 666 1021.6085205078125 193 198 217
1192 666 1025.219970703125 185 192 210
1197 666 1027.0267333984375 190 193 212
1214 666 1036.0714111328125 187 194 212
1253 666 1056.0302734375 195 198 217
1255 666 1057.8487548828125 188 195 211
1264 666 1062.397705078125 186 193 211
1281 666 1070.5960693359375 191 198 216
1282 666 1071.5078125 193 202 219
1311 666 1087.03076171875 182 189 207
1329 666 1097.098388671875 192 197 216
1330 666 1098.0145263671875 195 198 217
1334 666 1099.8472900390625 193 198 217
1359 666 1113.61083984375 191 196 215
1379 666 1125.564697265625 196 197 217
1380 666 1126.4852294921875 196 199 218
1437 666 1158.7855224609375 188 189 210
1458 666 1171.7491455078125 190 188 210
1465 666 1176.384765625 188 189 210
1494 666 1194.02685546875 181 176 199
1499 666 1196.816162109375 187 183 206
1551 666 1229.432373046875 173 177 202
1598 666 1259.3648681640625 185 185 209
1605 666 1264.051025390625 182 182 206
1612 666 1268.739501953125 180 180 204
1655 666 1295.0382080078125 174 182 205
1674 666 1308.2139892578125 172 178 204
1698 666 1324.2359619140625 172 173 203
1699 666 1325.17919921875 174 175 205
1700 666 1326.12255859375 176 175 206
1704 666 1328.0093994140625 172 179 205
1706 666 1329.8966064453125 176 180 207
1711 666 1331.7841796875 179 185 211
1712 666 1332.72802734375 179 187 210
1713 666 1333.6719970703125 179 186 212
1740 666 1352.5682373046875 168 178 205
1752 666 1359.189453125 179 189 214
1770 666 1372.443115234375 163 181 205
1806 666 1397.0955810546875 162 179 205
1820 666 1405.640380859375 164 176 202
1841 666 1420.84521484375 156 182 209
1842 666 1421.7960205078125 155 179 207
1847 666 1424.6490478515625 164 184 211
1848 666 1425.6002197265625 164 181 207
1849 666 1426.5513916015625 161 178 204
1850 666 1427.502685546875 157 172 201
1874 666 1443.6845703125 152 176 202
715 667 838.3615112304688 97 96 94
716 667 839.212158203125 111 108 103
717 667 840.0631103515625 119 118 113
973 667 926.6638793945312 181 188 206
1027 667 948.7260131835938 189 197 216
1031 667 950.4972534179688 190 192 213
1035 667 951.3831787109375 197 202 222
1068 667 965.5889282226562 195 200 219
1069 667 966.4786376953125 196 201 220
1085 667 974.4957885742188 197 203 219
1088 667 975.3876342773438 198 203 223
1092 667 976.2796630859375 202 207 227
1093 667 977.1719360351562 197 204 222
1108 667 984.3175048828125 205 210 229
1109 667 985.211669921875 195 200 219
1120 667 990.5806274414062 198 205 223
1124 667 992.3718872070312 200 209 226
1128 667 994.1639404296875 200 207 225
1129 667 995.060302734375 202 209 227
1133 667 995.9568481445312 199 206 224
1144 667 1001.340087890625 195 204 221
1145 667 1002.2379760742188 201 210 227
1149 667 1004.0343627929688 199 204 224
1154 667 1006.7303466796875 195 200 220
1170 667 1013.927978515625 203 206 225
1171 667 1014.8285522460938 192 195 214
1187 667 1022.9418334960938 204 210 226
1188 667 1023.84423828125 199 206 222
1191 667 1024.746826171875 200 207 225
1196 667 1026.552490234375 206 211 230
1213 667 1035.5916748046875 204 211 229
1214 667 1036.4964599609375 201 208 226
1254 667 1057.3560791015625 203 210 226
1283 667 1072.830322265625 196 208 224
1334 667 1100.2476806640625 205 212 230
1336 667 1102.080322265625 194 199 218
1340 667 1102.996826171875 205 210 229
1360 667 1114.9246826171875 204 209 228
1375 667 1124.1160888671875 198 205 223
1385 667 1129.6375732421875 206 211 230
1390 667 1131.4791259765625 198 204 220
1391 667 1132.400146484375 199 205 221
1405 667 1140.6949462890625 207 210 227
1407 667 1142.5396728515625 196 199 216
1437 667 1159.1656494140625 197 202 221
1470 667 1178.6136474609375 198 201 220
1471 667 1179.541015625 196 199 218
1493 667 1193.4664306640625 200 201 221
1544 667 1225.12451171875 192 192 216
1545 667 1226.0574951171875 186 188 211
1552 667 1230.72412109375 188 193 213
1557 667 1233.525390625 197 202 221
1558 667 1234.4593505859375 186 191 211
1612 667 1269.086669921875 181 186 208
1648 667 1291.617919921875 188 194 218
1674 667 1308.55078125 173 184 206
1699 667 1325.5115966796875 187 195 218
1700 667 1326.4547119140625 181 185 212
1738 667 1351.0032958984375 190 205 226
1753 667 1360.45947265625 170 187 207
1754 667 1361.405517578125 178 192 218
1807 667 1398.3597412109375 161 186 208
1813 667 1402.15625 176 194 214
1814 667 1403.10546875 181 197 220
1850 667 1427.811279296875 172 192 217
1865 667 1437.32568359375 161 187 214
1866 667 1438.2774658203125 159 185 212
1875 667 1444.94189453125 172 198 221
1876 667 1445.8941650390625 167 192 214
1877 667 1446.8465576171875 164 189 211
1885 667 1451.6094970703125 163 194 215
1912 667 1470.6767578125 173 199 216
1914 667 1472.5848388671875 165 190 210
1494 668 1194.7652587890625 204 210 224
1611 668 1268.4971923828125 198 214 227
1612 668 1269.4345703125 195 208 224
1618 668 1272.2471923828125 194 210 225
1636 668 1284.4454345703125 196 214 226
1637 668 1285.3843994140625 193 211 223
1649 668 1292.8994140625 195 213 225
1700 668 1326.7874755859375 200 217 233
1714 668 1335.2767333984375 190 214 226
1739 668 1352.275146484375 189 212 226
1801 668 1394.8809814453125 176 209 224
1807 668 1398.6754150390625 179 213 225
1814 668 1403.420166015625 181 209 223
1843 668 1423.3668212890625 177 206 224
1848 668 1426.21875 173 202 220
1884 668 1450.9610595703125 170 206 222
1885 668 1451.91357421875 171 204 221
991 674 935.6035766601562 174 179 199
1089 674 978.093017578125 163 165 186
1108 674 986.1160888671875 173 175 196
1120 674 992.3678588867188 173 175 196
1145 674 1004.0044555664062 173 178 197
1153 674 1007.5916748046875 175 178 197
1154 674 1008.4889526367188 171 173 194
1186 674 1023.77197265625 165 166 187
1187 674 1024.672607421875 174 175 196
1188 674 1025.573486328125 168 170 191
1254 674 1059.0306396484375 180 183 202
1255 674 1059.938232421875 174 177 194
1259 674 1061.7537841796875 180 181 201
1282 674 1073.5706787109375 176 177 198
715 675 841.0023803710938 91 87 86
716 675 841.850341796875 92 89 84
717 675 842.6986694335938 120 119 114
1088 675 977.658447265625 182 185 204
1089 675 978.5484008789062 180 182 203
1092 675 978.5484008789062 175 178 197
1108 675 986.5678100585938 183 185 206
1125 675 995.4978637695312 181 186 206
1128 675 996.3919677734375 181 186 206
1129 675 997.2863159179688 178 183 203
1132 675 997.2863159179688 186 193 212
1145 675 1004.4481201171875 177 182 201
1146 675 1005.34423828125 178 183 202
1149 675 1006.2405395507812 175 175 199
1170 675 1016.1126708984375 191 192 213
1171 675 1017.0112915039062 180 181 202
1188 675 1026.0078125 182 184 205
1191 675 1026.908447265625 185 187 208
1192 675 1027.809326171875 186 188 209
1196 675 1028.7103271484375 185 190 210
1218 675 1040.4403076171875 180 181 202
1253 675 1058.5443115234375 189 187 209
1254 675 1059.4512939453125 186 187 207
1268 675 1065.8048095703125 180 181 202
1292 675 1079.4466552734375 186 184 206
1299 675 1083.0904541015625 177 173 196
1305 675 1086.73681640625 184 182 204
1310 675 1088.56103515625 183 181 202
1335 675 1103.1759033203125 180 177 198
1361 675 1117.8287353515625 173 174 194
1374 675 1125.1688232421875 185 182 203
1386 675 1132.5179443359375 179 177 198
1412 675 1147.2423095703125 180 177 196
921 676 909.435546875 185 192 211
1050 676 961.25439453125 193 200 218
1069 676 969.2311401367188 191 198 216
1085 676 977.2256469726562 187 193 209
1088 676 978.1150512695312 194 201 217
1089 676 979.0045776367188 186 193 209
1092 676 979.0045776367188 194 203 220
1108 676 987.020263671875 186 195 212
1109 676 987.9119262695312 186 195 212
1120 676 993.266357421875 193 202 219
1128 676 996.8400268554688 192 201 218
1132 676 997.7339477539062 192 204 220
1133 676 998.6280517578125 190 202 216
1134 676 999.5223999023438 181 190 207
1145 676 1004.8925170898438 188 200 216
1149 676 1006.6841430664062 194 201 219
1150 676 1007.5802612304688 188 197 214
1154 676 1009.373046875 194 206 222
1158 676 1010.269775390625 193 202 219
1170 676 1016.552001953125 190 199 216
1188 676 1026.44287109375 195 204 219
1196 676 1029.144287109375 193 202 219
1197 676 1030.045166015625 188 197 214
1213 676 1038.160888671875 191 196 215
1214 676 1039.0634765625 197 204 222
1215 676 1039.96630859375 190 197 215
1223 676 1042.6759033203125 192 199 217
1224 676 1043.5794677734375 188 193 212
1241 676 1052.6243896484375 195 200 219
1259 676 1062.593505859375 194 199 218
1268 676 1066.2237548828125 194 201 219
1269 676 1067.1317138671875 191 198 216
1281 676 1073.491943359375 193 198 217
1282 676 1074.4012451171875 194 201 217
1283 676 1075.3106689453125 192 199 215
1301 676 1085.3248291015625 197 200 219
1305 676 1087.147705078125 192 195 214
1310 676 1088.9710693359375 190 193 212
1311 676 1089.883056640625 192 195 214
1335 676 1103.58056640625 189 191 212
1336 676 1104.494873046875 184 185 206
1359 676 1116.3951416015625 188 193 213
1374 676 1125.565673828125 184 184 208
1375 676 1126.4835205078125 185 187 208
1380 676 1129.23779296875 193 196 215
1381 676 1130.1561279296875 183 186 205
1385 676 1131.993408203125 185 186 207
1406 676 1143.948486328125 184 180 205
1407 676 1144.8690185546875 186 184 208
1439 676 1163.3077392578125 184 178 204
1460 676 1176.2452392578125 183 178 201
1465 676 1179.020751953125 186 178 202
1466 676 1179.9461669921875 183 175 199
1492 676 1194.76904296875 184 179 202
1499 676 1199.4073486328125 184 179 201
1516 676 1210.5511474609375 183 178 201
1125 677 996.3955078125 191 203 219
1129 677 998.182373046875 190 202 218
1132 677 998.182373046875 189 201 217
1133 677 999.0760498046875 188 200 214
1145 677 1005.3377685546875 193 205 221
1150 677 1008.0242919921875 189 198 215
1153 677 1008.9202270507812 198 207 224
1154 677 1009.8163452148438 193 205 221
1158 677 1010.712646484375 193 205 219
1213 677 1038.591796875 203 206 225
1255 677 1061.201171875 203 210 226
1259 677 1063.0145263671875 200 207 223
1268 677 1066.643310546875 200 209 224
1283 677 1075.7266845703125 197 209 223
1310 677 1089.3819580078125 206 211 230
1311 677 1090.2935791015625 204 209 228
1331 677 1102.1583251953125 196 201 220
1335 677 1103.9859619140625 196 201 220
1336 677 1104.9000244140625 193 198 217
1360 677 1117.7119140625 198 205 224
1376 677 1127.79833984375 195 200 220
1385 677 1132.388671875 195 200 220
1386 677 1133.30712890625 194 199 219
1391 677 1135.14453125 192 197 217
1412 677 1148.0213623046875 195 195 219
1418 677 1151.7052001953125 190 188 212
1437 677 1161.8468017578125 192 190 212
1438 677 1162.76953125 190 188 210
1439 677 1163.6923828125 188 186 208
1460 677 1176.625732421875 185 183 205
1461 677 1177.5504150390625 176 174 196
1508 677 1205.3485107421875 188 178 205
1637 677 1287.4599609375 174 174 198
1712 677 1335.390625 166 176 201
1745 677 1358.0235595703125 176 188 212
1772 677 1376.9197998046875 172 187 210
1779 677 1380.7027587890625 168 183 206
1806 677 1399.6356201171875 168 188 212
1807 677 1400.5831298828125 154 174 199
1849 677 1429.0391845703125 152 172 199
1914 677 1474.6962890625 148 170 193
1915 677 1475.6490478515625 145 165 190
1918 677 1476.601806640625 157 179 202
1919 677 1477.5546875 157 179 200
1311 678 1090.704833984375 192 198 214
1407 678 1145.6513671875 190 202 214
1461 678 1177.9312744140625 195 205 217
1471 678 1182.5552978515625 192 202 214
1472 678 1183.48046875 191 198 214
1564 678 1240.1358642578125 180 187 206
1600 678 1264.406982421875 178 182 207
1706 678 1332.9013671875 174 185 207
1707 678 1333.8428955078125 170 178 201
1740 678 1355.5228271484375 170 184 210
1745 678 1358.353759765625 175 187 211
1747 678 1360.2415771484375 160 171 199
1755 678 1364.9622802734375 161 171 198
1771 678 1376.3001708984375 164 178 205
1780 678 1381.9732666015625 176 190 216
1801 678 1397.1148681640625 162 176 205
1804 678 1398.0618896484375 165 179 206
1805 678 1399.0089111328125 164 182 206
1808 678 1401.8505859375 158 178 203
1821 678 1409.431396484375 159 181 205
1849 678 1429.35302734375 153 172 202
1869 678 1443.6014404296875 161 185 211
1882 678 1451.206787109375 156 178 202
1884 678 1453.1087646484375 158 180 204
1885 678 1454.059814453125 143 164 191
1886 678 1455.010986328125 146 167 198
1914 678 1475.0003662109375 141 161 188
1461 679 1178.312744140625 194 206 218
1471 679 1182.935302734375 199 211 223
1472 679 1183.8602294921875 200 210 222
1500 679 1201.455810546875 201 211 223
1523 679 1216.305908203125 199 206 222
1529 679 1219.093505859375 199 208 223
1546 679 1230.2540283203125 208 215 231
1547 679 1231.184814453125 198 203 222
1552 679 1233.9776611328125 200 205 224
1557 679 1236.7716064453125 200 209 224
1558 679 1237.703125 190 197 215
1643 679 1291.906005859375 191 199 220
1649 679 1295.65625 191 202 222
1650 679 1296.593994140625 184 195 215
1656 679 1299.407958984375 186 197 217
1700 679 1329.4739990234375 179 195 218
1713 679 1337.0045166015625 176 194 216
1714 679 1337.9461669921875 170 186 211
1745 679 1358.6846923828125 180 196 219
1747 679 1360.5718994140625 160 178 202
1754 679 1364.347412109375 178 194 217
1773 679 1378.5169677734375 173 191 215
1780 679 1382.2984619140625 172 190 212
1822 679 1410.697998046875 162 186 212
1843 679 1425.871337890625 167 185 209
1849 679 1429.66748046875 160 181 208
1877 679 1449.6151123046875 159 187 209
1885 679 1454.368896484375 155 179 203
1911 679 1472.4482421875 147 173 196
1914 679 1475.3050537109375 155 177 201
1606 680 1268.8565673828125 194 212 222
1611 680 1271.6611328125 199 216 226
1612 680 1272.59619140625 201 217 230
1638 680 1289.4437255859375 194 212 224
1643 680 1292.254638671875 202 220 232
1674 680 1311.95458984375 202 226 238
1707 680 1334.5174560546875 193 216 230
1739 680 1355.2435302734375 188 216 230
1740 680 1356.1865234375 182 210 224
1747 680 1360.9029541015625 177 206 220
1754 680 1364.6776123046875 180 208 222
1781 680 1383.5697021484375 177 203 218
1800 680 1396.8125 173 202 218
1801 680 1397.7589111328125 181 207 224
1808 680 1402.492431640625 187 215 227
1814 680 1406.280517578125 174 206 221
1842 680 1425.238525390625 176 203 220
1843 680 1426.187255859375 182 208 225
1849 680 1429.9825439453125 175 202 221
1850 680 1430.9315185546875 179 204 226
1856 680 1434.7281494140625 171 202 220
1914 680 1475.6103515625 161 190 208
1919 680 1478.4671630859375 174 201 220
1801 681 1398.0819091796875 186 212 227
1802 681 1399.0281982421875 185 203 225
1843 681 1426.5037841796875 178 204 221
1877 681 1450.2371826171875 177 209 224
1885 681 1454.989013671875 171 203 218
715 683 843.6646118164062 84 83 81
716 683 844.5098876953125 103 102 97
817 683 875.15771484375 156 163 182
1085 684 979.5228271484375 173 178 200
1093 684 982.185302734375 168 168 192
1108 684 989.294677734375 159 161 186
1109 684 990.184326171875 158 160 185
1110 684 991.0741577148438 157 158 186
1114 684 992.8544921875 151 150 181
1120 684 995.5264892578125 155 156 184
1121 684 996.4176025390625 153 154 182
1124 684 997.3088989257812 155 156 184
1125 684 998.2003784179688 153 155 180
1129 684 999.9840087890625 154 154 182
1130 684 1000.8760986328125 144 141 170
1133 684 1000.8760986328125 151 151 179
1134 684 1001.7684326171875 136 133 160
1145 684 1007.1265869140625 151 148 177
1146 684 1008.0203247070312 151 148 177
1149 684 1008.9142456054688 156 156 184
1150 684 1009.8084106445312 140 140 166
1154 684 1011.5972290039062 147 144 175
1158 684 1012.4920043945312 148 149 179
1159 684 1013.3869018554688 147 146 177
1170 684 1018.760498046875 152 152 180
1171 684 1019.6567993164062 152 153 181
1192 684 1030.4271240234375 172 173 194
1193 684 1031.3258056640625 165 166 187
714 685 843.8916015625 75 73 74
1027 685 954.3631591796875 190 195 215
1031 685 956.1239624023438 194 199 219
1035 685 957.0046997070312 193 198 218
1050 685 964.0591430664062 190 195 215
1051 685 964.9419555664062 188 193 213
1065 685 971.1282348632812 190 197 216
1069 685 972.0128784179688 189 195 217
1084 685 979.0980834960938 191 197 219
1085 685 979.9846801757812 185 192 211
1089 685 981.7586059570312 191 196 218
1093 685 982.6459350585938 187 189 212
1094 685 983.533447265625 174 176 199
1108 685 989.7520141601562 176 178 203
1109 685 990.6412353515625 172 176 201
1110 685 991.5306396484375 158 159 187
1120 685 995.9808959960938 169 170 198
1121 685 996.87158203125 170 171 199
1124 685 997.7625122070312 167 169 194
1125 685 998.653564453125 167 169 194
1129 685 1000.4364013671875 161 161 189
1130 685 1001.328125 156 153 182
1132 685 1000.4364013671875 165 165 193
1133 685 1001.328125 165 165 191
1134 685 1002.2200317382812 156 156 182
1145 685 1007.5758056640625 166 163 190
1146 685 1008.4691162109375 151 148 175
1149 685 1009.3626708984375 151 151 179
1150 685 1010.2564086914062 157 157 183
1151 685 1011.1503295898438 146 143 170
1153 685 1011.1503295898438 155 152 183
1154 685 1012.0444946289062 164 161 190
1155 685 1012.9387817382812 145 142 171
1158 685 1012.9387817382812 156 160 187
1159 685 1013.8333129882812 146 150 177
1170 685 1019.20458984375 169 171 196
1171 685 1020.1004638671875 172 174 199
1172 685 1020.99658203125 152 152 178
1186 685 1027.2745361328125 170 165 195
1187 685 1028.172119140625 170 167 194
1188 685 1029.0699462890625 174 174 198
1191 685 1029.968017578125 182 183 204
1192 685 1030.8660888671875 175 177 198
1193 685 1031.7645263671875 167 169 192
1196 685 1031.7645263671875 182 184 205
1197 685 1032.6630859375 179 184 203
1214 685 1041.6588134765625 181 186 205
1219 685 1044.361083984375 180 182 203
1224 685 1046.1634521484375 177 179 200
1225 685 1047.06494140625 178 180 201
1240 685 1054.283203125 182 183 204
1241 685 1055.186279296875 186 187 208
1254 685 1062.4171142578125 187 185 207
1255 685 1063.3216552734375 181 179 200
1264 685 1067.847412109375 192 193 213
1269 685 1069.6588134765625 177 175 197
1300 685 1086.900634765625 179 177 199
714 686 844.4287719726562 75 73 74
1027 686 954.8381958007812 193 200 218
1085 686 980.4473266601562 192 201 218
1088 686 981.3338012695312 188 195 213
1089 686 982.220458984375 192 199 217
1090 686 983.1072998046875 182 187 207
1093 686 983.1072998046875 189 196 214
1094 686 983.994384765625 173 178 198
1108 686 990.2100830078125 185 192 211
1109 686 991.098876953125 180 187 206
1110 686 991.9879150390625 172 177 199
1120 686 996.4361572265625 177 182 202
1121 686 997.326416015625 186 188 209
1122 686 998.2169189453125 169 171 194
1124 686 998.2169189453125 177 182 202
1125 686 999.1076049804688 176 183 201
1128 686 999.9984741210938 173 178 197
1129 686 1000.8895874023438 175 180 200
1130 686 1001.7808837890625 165 167 190
1132 686 1000.8895874023438 178 183 203
1133 686 1001.7808837890625 175 182 200
1134 686 1002.6724243164062 166 173 191
1144 686 1007.133056640625 162 165 184
1145 686 1008.0258178710938 172 175 194
1146 686 1008.918701171875 165 171 187
1149 686 1009.8118896484375 172 177 196
1150 686 1010.7052001953125 179 182 199
1151 686 1011.5987548828125 156 159 176
1153 686 1011.5987548828125 180 182 203
1154 686 1012.4924926757812 174 177 196
1155 686 1013.3864135742188 156 161 180
1158 686 1013.3864135742188 165 177 191
1159 686 1014.280517578125 157 169 183
1160 686 1015.1748657226562 153 160 176
1170 686 1019.6494750976562 178 190 202
1171 686 1020.5449829101562 173 183 195
1172 686 1021.440673828125 157 162 181
1186 686 1027.7159423828125 177 179 202
1187 686 1028.6131591796875 184 189 211
1188 686 1029.5106201171875 188 196 215
1192 686 1031.305908203125 192 201 218
1193 686 1032.2039794921875 187 196 213
1196 686 1032.2039794921875 191 200 217
1197 686 1033.1021728515625 188 197 214
1213 686 1041.1939697265625 192 201 218
1214 686 1042.093994140625 197 211 224
1223 686 1045.6959228515625 191 203 219
1241 686 1055.615966796875 194 200 216
1255 686 1063.748046875 186 192 208
1282 686 1077.3323974609375 190 197 215
1283 686 1078.2392578125 187 194 212
1302 686 1089.1353759765625 185 187 208
1306 686 1090.9537353515625 190 195 214
1310 686 1091.863037109375 188 191 210
1311 686 1092.7725830078125 183 186 205
1330 686 1103.69921875 186 191 210
1340 686 1108.258544921875 186 188 209
1341 686 1109.1708984375 176 178 199
1375 686 1129.2794189453125 191 187 212
1391 686 1137.52587890625 184 180 205
1424 686 1156.8111572265625 175 170 192
1108 687 990.6689453125 158 160 181
1109 687 991.557373046875 161 166 185
1110 687 992.4459838867188 145 147 168
1120 687 996.8921508789062 145 146 167
1121 687 997.7820434570312 160 161 182
1124 687 998.672119140625 145 147 168
1125 687 999.5623779296875 159 162 179
1128 687 1000.452880859375 147 150 167
1129 687 1001.3435668945312 143 144 164
1130 687 1002.2344970703125 138 136 160
1132 687 1001.3435668945312 146 147 167
1133 687 1002.2344970703125 148 151 168
1134 687 1003.1256103515625 144 147 162
1144 687 1007.584228515625 144 146 161
1145 687 1008.4765625 159 161 174
1146 687 1009.3690795898438 151 153 166
1147 687 1010.2618408203125 139 141 154
1149 687 1010.2618408203125 156 158 173
1150 687 1011.15478515625 161 160 174
1151 687 1012.0479125976562 139 138 152
1153 687 1012.0479125976562 152 154 169
1154 687 1012.9412841796875 158 160 175
1155 687 1013.8347778320312 140 142 157
1158 687 1013.8347778320312 163 172 181
1159 687 1014.728515625 140 149 158
1160 687 1015.6224975585938 137 141 153
1170 687 1020.0950927734375 161 170 177
1171 687 1020.990234375 158 167 176
1172 687 1021.885498046875 154 156 171
1187 687 1029.054931640625 179 184 204
1188 687 1029.951904296875 180 188 207
1192 687 1031.74658203125 184 193 210
1193 687 1032.6441650390625 183 192 209
1196 687 1032.6441650390625 187 194 213
1197 687 1033.5419921875 188 195 213
1215 687 1043.429931640625 186 200 213
1236 687 1054.241943359375 201 210 225
1253 687 1062.36767578125 196 201 220
1260 687 1066.887939453125 202 209 227
1263 687 1067.7926025390625 209 215 231
1268 687 1069.602294921875 204 210 226
1269 687 1070.50732421875 201 208 224
1282 687 1077.754150390625 199 208 223
1283 687 1078.6607666015625 199 208 223
1292 687 1083.1961669921875 203 208 227
1300 687 1087.7357177734375 195 200 219
1310 687 1092.279296875 199 204 223
1311 687 1093.1884765625 199 205 221
1312 687 1094.0977783203125 196 199 218
1335 687 1106.8450927734375 196 201 221
1336 687 1107.7567138671875 193 198 217
1340 687 1108.6685791015625 193 198 217
1341 687 1109.58056640625 194 199 218
1386 687 1136.0924072265625 187 185 207
1412 687 1150.77099609375 193 189 212
1418 687 1154.4461669921875 188 184 207
1494 687 1199.6353759765625 174 172 194
1159 688 1015.1773071289062 118 114 128
1335 688 1107.2564697265625 199 209 221
1340 688 1109.079345703125 200 209 224
1341 688 1109.990966796875 198 207 222
1359 688 1120.029052734375 207 217 229
1360 688 1120.9425048828125 204 214 226
1376 688 1131.0 202 211 226
1380 688 1132.83056640625 196 208 222
1386 688 1136.4932861328125 197 206 221
1391 688 1138.3255615234375 199 211 225
1392 688 1139.2418212890625 197 206 221
1413 688 1152.0850830078125 193 198 217
1418 688 1154.8406982421875 190 197 215
1459 688 1178.772705078125 185 186 206
1500 688 1203.7159423828125 187 183 208
1546 688 1232.4613037109375 181 177 200
1557 688 1238.96728515625 186 184 206
1582 688 1254.7896728515625 178 174 199
1408 689 1149.727783203125 198 207 222
1412 689 1151.563232421875 210 219 234
1466 689 1183.7706298828125 191 198 214
1467 689 1184.6932373046875 193 199 215
1517 689 1215.2056884765625 188 189 210
1545 689 1231.9029541015625 194 192 216
1606 689 1271.0015869140625 182 187 209
1612 689 1274.73486328125 182 184 209
1473 690 1187.8468017578125 200 206 218
1546 690 1233.2027587890625 199 208 223
1551 690 1235.9886474609375 192 201 216
1582 690 1255.517822265625 191 198 216
1583 690 1256.448974609375 186 191 210
1657 690 1303.13623046875 166 170 199
1658 690 1304.072509765625 170 171 199
1870 690 1447.37451171875 162 179 205
1871 690 1448.3231201171875 153 173 198
1884 690 1455.914794921875 157 177 201
1885 690 1456.8641357421875 153 170 196
1886 690 1457.8134765625 150 165 196
1919 690 1480.617431640625 164 180 206
715 691 845.8096923828125 82 81 79
1530 691 1223.3712158203125 196 203 219
1553 691 1238.2169189453125 204 216 230
1564 691 1243.7913818359375 197 211 222
1565 691 1244.7208251953125 203 215 227
1582 691 1255.8829345703125 200 212 226
1583 691 1256.8138427734375 201 210 225
1600 691 1267.9925537109375 201 218 234
1611 691 1274.520263671875 193 209 225
1620 691 1280.1195068359375 206 212 234
1650 691 1299.7449951171875 194 205 223
1651 691 1300.6805419921875 194 201 220
1656 691 1302.5521240234375 189 197 220
1740 691 1358.867919921875 173 187 213
1741 691 1359.8092041015625 172 186 212
1754 691 1367.34228515625 177 192 215
1813 691 1407.921142578125 167 181 210
1815 691 1409.81201171875 169 180 210
1820 691 1411.7032470703125 167 184 210
1822 691 1413.5947265625 161 178 206
1865 691 1442.9500732421875 157 170 202
1878 691 1453.3829345703125 148 169 196
1885 691 1457.1788330078125 158 178 203
1919 691 1480.9271240234375 155 172 198
1122 692 1000.5008544921875 96 97 102
1130 692 1004.0567626953125 90 90 98
1152 692 1014.7443237304688 80 78 91
1155 692 1015.63623046875 86 91 97
1619 692 1279.5452880859375 195 208 224
1658 692 1304.7762451171875 199 213 226
1675 692 1316.0125732421875 188 206 220
1707 692 1337.5859375 189 216 227
1708 692 1338.52490234375 182 209 220
1715 692 1342.281982421875 191 207 220
1748 692 1364.853515625 185 198 217
1753 692 1366.736572265625 185 211 224
1754 692 1367.6783447265625 187 208 225
1802 692 1401.63330078125 178 199 216
1807 692 1404.467529296875 171 198 217
1808 692 1405.412353515625 171 193 214
1821 692 1412.97412109375 170 192 213
1822 692 1413.919677734375 178 199 220
1915 692 1479.3363037109375 164 189 211
1140 693 1008.50634765625 67 65 66
1801 693 1401.0174560546875 184 210 223
1808 693 1405.739990234375 185 211 228
1815 693 1410.4644775390625 181 208 227
1821 693 1413.300048828125 190 213 231
1822 693 1414.245361328125 180 203 221
1823 693 1415.1907958984375 183 206 224
1842 693 1428.4344482421875 179 215 229
1843 693 1429.3809814453125 177 213 227
1850 693 1434.11474609375 178 205 226
1871 693 1449.274658203125 174 205 223
1156 694 1016.9803466796875 57 57 55
1165 694 1020.5493774414062 70 70 68
715 695 847.9681396484375 80 79 75
1129 695 1004.0841674804688 62 58 55
714 696 847.6697387695312 72 72 72
1061 696 973.5979614257812 119 124 120
1051 697 968.723388671875 141 139 161
1052 697 969.60302734375 135 131 154
1059 697 971.3629760742188 80 76 77
1060 697 972.2432861328125 77 72 69
1061 697 973.1238403320312 73 68 65
1050 698 968.3207397460938 147 152 174
1051 698 969.1996459960938 140 142 165
1052 698 970.078857421875 129 127 151
1055 698 970.9583129882812 103 94 111
1056 698 971.8379516601562 91 77 92
1058 698 970.9583129882812 89 74 79
1187 698 1032.1690673828125 53 57 56
1193 698 1035.74755859375 73 73 71
1194 698 1036.6427001953125 80 80 78
1196 698 1035.74755859375 85 87 86
1198 698 1037.5379638671875 85 86 90
1027 699 959.150146484375 151 157 173
1050 699 968.7982177734375 153 160 176
1051 699 969.6767578125 137 143 159
1052 699 970.5554809570312 117 118 138
1055 699 971.4345092773438 94 88 102
1190 699 1035.2994384765625 56 58 55
1192 699 1035.2994384765625 68 67 62
1193 699 1036.1939697265625 71 70 65
1196 699 1036.1939697265625 76 77 72
1197 699 1037.0887451171875 82 84 81
1198 699 1037.983642578125 76 80 79
1031 700 961.3843994140625 158 164 176
1050 700 969.2765502929688 132 143 147
1051 700 970.1546020507812 113 122 127
1052 700 971.032958984375 83 87 96
1054 700 971.032958984375 70 67 78
1193 700 1036.6412353515625 61 62 57
1196 700 1036.6412353515625 82 84 81
1197 700 1037.5355224609375 81 87 83
1198 700 1038.4300537109375 81 90 87
1214 700 1046.4893798828125 166 162 187
1215 700 1047.3857421875 165 163 187
1219 700 1049.17919921875 174 175 196
1255 700 1068.0543212890625 182 183 204
1259 700 1069.8560791015625 186 182 205
1264 700 1072.56005859375 189 187 209
1050 701 969.755615234375 73 82 79
1197 701 1037.983154296875 68 74 72
1198 701 1038.8773193359375 64 73 72
1213 701 1046.0372314453125 174 170 195
1214 701 1046.93310546875 188 186 208
1215 701 1047.8292236328125 188 186 208
1219 701 1049.621826171875 201 204 223
1220 701 1050.5184326171875 198 199 219
1293 701 1088.338623046875 184 185 206
1307 701 1096.4825439453125 188 189 210
1215 702 1048.2733154296875 177 176 194
1361 702 1125.957763671875 190 191 212
1205 703 1043.796875 72 76 79
1419 703 1160.1435546875 183 177 203
1462 704 1186.2225341796875 181 177 200
1468 704 1189.899169921875 185 180 203
1472 704 1190.818603515625 184 179 202
715 705 851.2308959960938 88 84 81
1651 707 1304.963623046875 169 175 201
797 708 720.977783203125 129 29 41
802 708 724.7647705078125 132 32 44
1214 708 1048.7159423828125 96 97 115
1755 708 1372.699951171875 151 165 191
773 709 711.1188354492188 135 33 44
806 709 724.6585693359375 134 30 41
1214 709 1049.1634521484375 109 110 130
1215 709 1050.0576171875 108 106 128
1216 709 1050.951904296875 119 115 138
1219 709 1051.846435546875 147 145 169
1224 709 1053.6361083984375 162 160 182
1225 709 1054.5311279296875 164 162 184
1801 709 1405.01171875 156 172 198
1824 709 1420.0880126953125 161 172 202
1844 709 1434.240234375 158 172 201
1867 709 1449.354736328125 152 165 199
1886 709 1462.5953369140625 148 172 196
755 710 703.6163940429688 132 26 38
1214 710 1049.61181640625 109 111 132
1215 710 1050.505615234375 124 124 148
1216 710 1051.3995361328125 131 128 155
1219 710 1052.293701171875 163 161 185
1220 710 1053.18798828125 157 158 179
1224 710 1054.08251953125 183 184 205
1237 710 1062.1417236328125 185 190 210
1241 710 1063.0380859375 187 185 207
1242 710 1063.9346923828125 186 187 208
1254 710 1070.2158203125 177 178 199
1255 710 1071.1138916015625 185 186 207
1256 710 1072.0120849609375 180 178 200
1261 710 1074.7078857421875 179 175 198
1264 710 1075.6068115234375 180 181 202
1269 710 1077.4052734375 176 177 198
1270 710 1078.3046875 179 177 199
1283 710 1085.5068359375 186 184 205
1284 710 1086.4078369140625 182 180 202
1285 710 1087.30908203125 169 165 188
1850 710 1438.3463134765625 163 183 207
1858 710 1444.012451171875 152 171 203
1886 710 1462.9189453125 154 178 204
1914 710 1482.8017578125 160 180 205
746 711 701.34228515625 135 29 39
752 711 703.5524291992188 136 29 39
795 711 721.4388427734375 146 36 47
814 711 730.5134887695312 142 32 43
838 711 741.2057495117188 127 30 39
1214 711 1050.0609130859375 105 107 128
1215 711 1050.954345703125 129 129 153
1216 711 1051.847900390625 138 135 162
1219 711 1052.74169921875 173 171 193
1220 711 1053.6356201171875 166 167 187
1224 711 1054.52978515625 188 193 213
1255 711 1071.553955078125 189 192 211
1265 711 1076.94384765625 186 189 208
1283 711 1085.9410400390625 192 190 212
1284 711 1086.841796875 186 184 206
1293 711 1091.3477783203125 183 184 205
1302 711 1096.7607421875 184 182 206
1307 711 1099.4693603515625 189 187 208
1308 711 1100.3726806640625 179 176 197
1312 711 1101.276123046875 181 177 200
1851 711 1439.6201171875 166 186 210
739 712 697.6718139648438 125 28 37
742 712 699.0851440429688 129 23 33
750 712 702.7553100585938 136 29 37
822 712 732.7953491210938 146 40 50
1312 712 1101.705078125 186 189 208
1313 712 1102.6082763671875 182 185 204
1337 712 1116.176513671875 185 190 209
1343 712 1118.89453125 178 179 200
1361 712 1128.8729248046875 186 184 206
1362 712 1129.781005859375 185 181 204
1382 712 1141.5997314453125 179 176 197
1886 712 1463.5682373046875 176 205 221
715 713 853.9724731445312 77 76 74
716 713 854.8075561523438 95 94 90
717 713 855.6430053710938 110 109 104
733 713 696.160888671875 107 38 43
1382 713 1142.014404296875 187 183 206
1392 713 1146.5653076171875 188 185 206
1393 713 1147.4759521484375 186 183 204
736 714 696.8450317382812 132 26 36
743 714 700.4984130859375 136 29 37
744 714 701.2310791015625 139 32 42
748 714 701.9644165039062 145 38 46
832 714 740.1925659179688 137 31 43
1424 714 1165.212890625 181 179 201
1425 714 1166.1260986328125 179 175 198
1440 714 1175.265869140625 182 178 203
1461 714 1188.0849609375 183 178 201
750 715 704.1115112304688 149 39 48
1495 715 1208.67578125 182 174 197
1496 716 1209.9888916015625 182 176 202
1517 716 1222.8675537109375 188 184 209
1518 716 1223.788330078125 186 182 205
1519 716 1224.7093505859375 179 174 197
1530 716 1230.23779296875 179 175 200
1553 717 1245.3851318359375 184 182 206
1559 717 1249.0797119140625 182 180 202
1560 717 1250.0035400390625 176 174 198
1565 717 1251.851806640625 179 175 202
1584 717 1264.8023681640625 178 174 201
1613 718 1283.714111328125 176 178 203
1614 718 1284.6419677734375 175 177 202
1619 718 1286.4979248046875 183 183 207
1620 718 1287.4261474609375 174 171 198
1636 718 1297.642822265625 178 178 204
1637 718 1298.572265625 176 176 200
1638 718 1299.5018310546875 174 172 196
1658 718 1311.59521484375 164 170 192
727 719 696.0 111 44 53
728 719 696.7244873046875 132 39 49
1651 719 1308.2388916015625 182 189 208
1658 719 1311.960693359375 173 179 201
1677 719 1325.0 173 177 204
1701 719 1340.859375 169 177 198
1702 719 1341.793212890625 173 179 203
1709 719 1346.4635009765625 165 173 196
1714 719 1348.332275390625 170 182 204
716 720 857.013427734375 91 87 84
717 720 857.8467407226562 105 101 98
726 720 695.9669799804688 100 39 47
728 720 697.413818359375 132 32 42
741 720 701.7706298828125 147 36 45
1677 720 1325.362548828125 178 184 210
1702 720 1342.1512451171875 178 184 210
1708 720 1345.8863525390625 171 182 204
1716 720 1350.5572509765625 159 170 198
1739 720 1365.52001953125 162 167 197
1740 720 1366.4560546875 167 172 201
1746 720 1370.20068359375 170 180 205
1755 720 1375.8204345703125 163 173 200
1780 720 1392.6988525390625 162 176 202
1781 720 1393.6373291015625 165 179 205
1802 720 1408.6649169921875 159 175 200
716 721 857.56689453125 87 83 80
717 721 858.399658203125 102 98 95
718 721 859.2327880859375 121 120 116
719 721 860.0662841796875 126 126 124
740 721 701.7293090820312 147 37 46
1621 721 1289.4727783203125 200 212 226
1708 721 1346.2440185546875 176 191 212
1741 721 1367.744140625 170 177 205
1747 721 1371.48828125 171 183 207
1753 721 1374.2972412109375 171 181 208
1754 721 1375.2337646484375 170 182 208
1756 721 1377.1070556640625 167 170 201
1782 721 1394.921142578125 160 171 201
1802 721 1409.0067138671875 157 171 198
1803 721 1409.9464111328125 151 165 192
1810 721 1414.646240234375 158 167 198
1815 721 1417.4671630859375 163 181 205
1816 721 1418.4075927734375 158 175 201
1820 721 1419.34814453125 155 175 202
1821 721 1420.2886962890625 153 173 198
1822 721 1421.2293701171875 159 176 202
1842 721 1435.3494873046875 161 183 206
1868 721 1453.2601318359375 157 173 199
1878 721 1460.8096923828125 162 184 205
748 722 706.0552368164062 149 39 50
775 722 717.0697021484375 143 33 44
785 722 721.5157470703125 152 40 52
791 722 723.7471923828125 146 34 46
835 722 744.0732421875 142 36 48
837 722 745.5957641601562 150 44 56
1755 722 1376.52099609375 179 196 216
1850 722 1441.3372802734375 162 187 207
1851 722 1442.2794189453125 149 174 196
1870 722 1455.4786376953125 162 179 205
1877 722 1460.1961669921875 154 176 200
1886 722 1465.85986328125 159 175 201
1887 722 1466.803955078125 157 172 201
1912 722 1483.81201171875 153 169 195
1915 722 1486.64892578125 158 176 198
1916 722 1487.5947265625 159 175 198
747 723 706.0113525390625 148 38 47
751 723 707.46875 142 32 41
786 723 722.9281005859375 143 31 43
789 723 722.9281005859375 143 31 43
806 723 731.8859252929688 154 42 54
836 723 745.4830932617188 144 38 50
1915 723 1486.97412109375 154 172 194
1916 723 1487.919677734375 142 156 182
716 724 859.2322387695312 98 93 89
784 724 722.1149291992188 143 33 44
792 724 725.8270874023438 145 35 46
836 724 746.1326904296875 141 33 48
1810 724 1415.6712646484375 190 207 225
1845 724 1439.183837890625 171 197 214
783 725 722.8561401367188 144 34 47
739 726 703.7592163085938 150 42 55
1214 728 1055.5093994140625 57 58 63
716 729 859.7889404296875 92 91 89
716 731 860.90478515625 88 83 80
1215 732 1057.31591796875 66 66 74
723 734 700.771728515625 144 40 49
1242 734 1071.5689697265625 178 179 199
723 735 701.4727172851562 146 44 55
777 736 723.8432006835938 110 66 81
781 736 725.3088989257812 123 40 56
856 736 761.2154541015625 139 51 65
778 737 725.2565307617188 81 47 64
859 738 764.7966918945312 121 34 42
779 739 726.6697998046875 87 53 69
822 739 745.9148559570312 98 70 92
726 743 705.6982421875 67 57 66
1530 743 1238.129638671875 182 185 202
1561 744 1258.7056884765625 179 177 198
1567 744 1261.46142578125 175 173 195
775 745 726.4880981445312 61 60 76
797 746 735.9347534179688 72 59 85
802 746 739.6113891601562 86 87 115
1220 746 1064.603271484375 115 110 133
1221 746 1065.4881591796875 138 132 158
778 747 730.04248046875 73 48 67
796 747 738.0819702148438 96 80 107
801 747 739.5518798828125 92 89 118
821 747 749.1661987304688 91 97 123
859 747 767.1779174804688 117 32 39
1225 747 1066.8387451171875 147 152 172
1651 747 1316.0888671875 175 181 203
718 748 706.4085083007812 94 33 38
820 748 749.0927734375 92 94 119
821 748 749.8353271484375 94 98 123
832 748 754.302978515625 94 100 124
858 748 768.5883178710938 123 36 44
722 749 708.526611328125 131 53 66
723 749 709.2312622070312 116 56 68
1716 749 1358.548095703125 176 182 204
779 750 731.3795166015625 99 58 76
1221 752 1067.824951171875 112 110 134
1363 752 1143.124267578125 196 206 218
1804 752 1419.2646484375 156 167 195
1868 753 1461.7420654296875 150 165 194
1879 753 1470.186767578125 167 189 210
726 754 710.6455078125 66 65 83
717 756 709.9859008789062 91 40 49
1220 756 1067.8824462890625 106 105 123
772 758 731.9788208007812 53 55 68
1504 758 1228.0015869140625 192 194 209
720 759 711.4000244140625 135 42 53
779 759 734.833984375 109 47 60
725 760 714.2128295898438 78 70 85
799 760 744.2203979492188 73 78 98
820 760 754.477294921875 88 92 117
720 761 712.8323974609375 133 37 48
778 761 735.5011596679688 93 49 64
818 761 753.6823120117188 71 76 96
819 761 754.4176635742188 75 77 100
824 761 756.6273803710938 70 72 93
827 761 758.842529296875 78 86 107
794 762 744.1397705078125 75 54 73
821 762 756.5665893554688 55 53 74
826 762 758.7779541015625 56 57 78
830 762 759.5162963867188 59 61 82
833 762 761.73486328125 65 66 86
755 764 727.6132202148438 81 43 54
1679 764 1339.5390625 185 201 214
858 765 775.6448974609375 115 29 40
1716 765 1363.0367431640625 191 213 224
1219 768 1070.7950439453125 72 70 81
1220 768 1071.6739501953125 81 80 96
1221 768 1072.552978515625 81 82 102
1220 769 1072.151123046875 86 88 103
1221 769 1073.02978515625 91 92 112
1226 769 1074.787841796875 134 128 154
1227 769 1075.667236328125 139 131 155
857 770 777.5615844726562 123 40 50
1221 770 1073.50732421875 102 103 124
1225 770 1074.3858642578125 151 153 176
1226 770 1075.2646484375 150 150 174
1227 770 1076.1435546875 146 144 166
742 771 726.2265625 154 52 65
1220 771 1073.107666015625 88 89 107
1221 771 1073.985595703125 98 99 119
1222 771 1074.86376953125 118 119 140
1225 771 1074.86376953125 156 161 183
1226 771 1075.7420654296875 168 170 193
1227 771 1076.62060546875 162 164 185
1257 771 1092.4705810546875 186 187 208
743 772 727.6406860351562 151 49 62
1226 772 1076.22021484375 151 153 176
1257 772 1092.94140625 193 200 216
727 773 720.69482421875 153 47 59
735 773 724.862060546875 147 45 58
1258 773 1094.2947998046875 203 212 227
1263 773 1096.941162109375 196 203 219
1271 773 1099.5894775390625 199 206 224
1309 773 1120.8394775390625 193 188 211
735 774 725.5797729492188 149 51 64
755 775 733.2864379882812 129 55 68
732 776 724.2154541015625 126 43 51
1344 776 1139.993896484375 193 199 215
858 777 781.6495361328125 111 28 38
1396 777 1169.916259765625 176 171 194
1365 778 1153.3785400390625 200 210 222
857 779 781.5791625976562 123 37 48
1219 779 1076.387451171875 63 62 70
1220 779 1075.511474609375 76 74 87
1221 779 1076.387451171875 81 80 96
1222 779 1077.263671875 86 87 107
1228 779 1079.8935546875 131 129 153
1380 779 1162.7574462890625 205 212 228
1221 780 1076.8699951171875 90 87 106
1222 780 1077.745849609375 108 109 129
1226 780 1078.621826171875 139 146 165
1227 780 1079.498046875 144 149 169
1229 780 1081.2510986328125 158 160 183
1244 780 1088.27197265625 178 178 202
730 781 727.1038208007812 139 49 59
783 781 747.4202270507812 63 64 82
1221 781 1077.353271484375 91 90 108
1222 781 1078.2286376953125 108 109 129
1225 781 1078.2286376953125 138 144 166
1226 781 1079.104248046875 157 162 182
1227 781 1079.9801025390625 160 165 184
1228 781 1080.856201171875 157 159 180
1234 781 1084.3624267578125 194 197 216
1239 781 1086.9945068359375 186 191 213
1244 781 1088.750244140625 182 187 207
1422 781 1186.92919921875 200 210 222
730 782 727.8275756835938 138 50 62
779 782 747.4148559570312 58 59 77
856 782 782.85888671875 142 54 70
1227 782 1080.462890625 155 156 176
1257 782 1096.25732421875 191 194 213
1258 782 1097.13671875 193 200 218
781 783 747.4122314453125 56 61 80
1263 783 1100.2513427734375 198 203 222
1267 783 1102.0113525390625 201 208 226
1268 783 1102.8916015625 198 205 223
1272 783 1103.772216796875 196 201 220
779 784 748.826416015625 61 64 83
1286 784 1112.1766357421875 195 204 219
1287 784 1113.058837890625 188 197 214
1305 784 1122.775634765625 186 191 210
782 785 748.1203002929688 52 55 74
784 785 749.5385131835938 52 57 77
790 785 752.3828735351562 67 73 95
792 785 753.8090209960938 58 63 85
1310 785 1125.8956298828125 192 197 216
1311 785 1126.7803955078125 189 192 211
1315 785 1127.665283203125 197 200 219
723 786 726.5294189453125 151 41 52
783 786 749.5345458984375 60 63 82
785 786 750.9526977539062 54 59 78
786 786 751.662841796875 56 58 79
787 786 752.3735961914062 57 62 82
819 786 766.7241821289062 81 89 112
1314 786 1127.2467041015625 205 208 223
1334 786 1138.7607421875 189 196 214
722 787 726.573486328125 152 42 53
782 787 749.533203125 62 65 84
784 787 750.94873046875 57 62 81
785 787 751.6575317382812 62 67 86
786 787 752.366943359375 53 58 77
792 787 755.2112426757812 53 59 81
1334 787 1139.2230224609375 207 214 230
781 788 749.5345458984375 63 64 82
783 788 750.9473876953125 61 64 83
818 788 767.3832397460938 82 88 112
828 788 771.0006713867188 86 87 115
829 788 771.7260131835938 100 102 127
1385 788 1168.138671875 178 183 203
798 789 758.7522583007812 75 76 104
857 789 786.2982788085938 131 43 57
1365 789 1157.0142822265625 200 208 221
1385 789 1168.591064453125 188 196 215
1386 789 1169.4827880859375 181 186 206
1586 789 1288.0035400390625 204 214 223
780 790 750.2485961914062 66 67 88
785 790 753.7758178710938 66 66 90
818 790 768.7684936523438 78 84 108
1220 790 1078.9068603515625 64 66 78
1391 790 1172.6107177734375 197 205 218
1395 790 1173.5029296875 196 204 217
1443 790 1201.24267578125 192 184 208
791 791 757.3143310546875 68 74 98
1221 791 1080.267578125 67 71 83
1443 792 1202.12646484375 193 196 215
1649 792 1329.4036865234375 194 206 220
1718 792 1372.56005859375 163 174 196
1225 793 1082.116943359375 99 101 122
1226 793 1082.9893798828125 113 113 137
1227 793 1083.862060546875 117 115 139
1228 793 1084.7349853515625 109 107 129
1464 793 1215.135009765625 183 184 204
1718 793 1372.9500732421875 167 178 200
1744 793 1390.462158203125 173 185 209
776 794 751.6814575195312 57 61 86
1221 794 1081.7342529296875 61 60 68
1222 794 1082.6060791015625 75 77 90
1226 794 1083.4781494140625 121 121 145
1227 794 1084.3504638671875 127 124 151
1718 794 1373.3408203125 180 197 213
1751 794 1395.4615478515625 167 178 200
782 795 754.4991455078125 53 59 83
1222 795 1083.0960693359375 84 83 97
1226 795 1083.9676513671875 132 134 157
1227 795 1084.839599609375 131 131 155
1228 795 1085.7117919921875 122 120 144
1245 795 1094.445068359375 173 171 195
1246 795 1095.319580078125 170 168 192
1505 795 1240.31689453125 184 182 204
1752 795 1396.76953125 168 179 199
782 796 753.7877807617188 58 64 88
1223 796 1084.4578857421875 98 100 115
1226 796 1084.4578857421875 141 146 165
1227 796 1085.3294677734375 147 152 171
1229 796 1087.0731201171875 141 146 166
1240 796 1093.1829833984375 185 191 213
1245 796 1094.9305419921875 179 184 204
1257 796 1101.0540771484375 172 170 194
1258 796 1101.9296875 169 170 191
1259 796 1102.8055419921875 171 169 191
1264 796 1105.434326171875 172 170 194
1267 796 1106.31103515625 171 172 193
1268 796 1107.1878662109375 169 170 190
1269 796 1108.06494140625 167 168 188
1500 796 1238.0435791015625 196 205 220
1506 796 1241.6505126953125 195 201 217
1745 796 1392.5433349609375 175 204 212
1752 796 1397.1549072265625 188 204 219
1805 796 1432.288330078125 164 176 200
1820 796 1442.4857177734375 160 167 196
767 797 748.9011840820312 58 67 100
1286 797 1116.4453125 173 174 194
1506 797 1242.08251953125 184 190 204
1752 797 1397.541015625 182 200 214
1819 797 1441.932373046875 172 184 210
1848 797 1461.42529296875 161 170 201
742 798 739.2516479492188 60 63 78
745 798 741.3123779296875 83 93 128
767 798 749.6185913085938 80 91 123
789 798 758.728515625 70 76 102
791 798 760.14013671875 69 75 99
1286 798 1116.9229736328125 180 182 203
1297 798 1123.076171875 169 170 191
1567 798 1277.78125 183 181 203
1805 798 1433.042236328125 183 205 219
745 799 742.0383911132812 74 84 119
754 799 744.7932739257812 64 69 88
1311 799 1131.4742431640625 173 171 193
1314 799 1131.4742431640625 179 174 196
1315 799 1132.35546875 179 174 196
1316 799 1133.2369384765625 175 170 190
1557 799 1273.670654296875 198 208 220
1817 799 1440.8292236328125 177 198 215
776 800 754.5389404296875 69 74 94
777 800 755.2377319335938 61 67 89
782 800 756.6372680664062 59 70 92
790 800 760.8521728515625 71 77 99
1854 800 1466.2513427734375 162 194 209
776 801 755.2549438476562 50 52 73
790 801 761.5621948242188 73 79 101
1339 801 1146.5330810546875 181 178 199
1340 801 1147.4166259765625 184 181 202
1604 801 1303.563232421875 181 197 210
1862 801 1472.1956787109375 170 193 211
1336 802 1146.11865234375 191 194 213
1365 802 1161.15673828125 178 174 197
1366 802 1162.04296875 175 170 193
1611 802 1308.52783203125 196 206 218
1612 802 1309.43798828125 194 200 216
1618 802 1313.080322265625 188 193 212
1640 802 1325.8446044921875 182 189 208
1226 803 1086.42578125 102 98 121
1227 803 1087.2957763671875 114 109 132
1229 803 1089.0362548828125 121 117 142
1230 803 1089.9068603515625 134 134 160
1381 803 1171.375732421875 171 167 190
1386 803 1174.0400390625 169 170 191
1661 803 1339.038818359375 176 181 203
1223 804 1086.9195556640625 76 80 92
1226 804 1086.9195556640625 109 105 128
1227 804 1087.7890625 112 108 133
1228 804 1088.6588134765625 118 112 140
