ply
format ascii 1.0
element vertex 1286
property float x
property float y
property float z
property float red
property float green
property float blue
end_header
1173 999 1088.6064453125 69 66 59
1185 999 1096.359375 70 66 57
1192 999 1099.4708251953125 62 58 49
1193 999 1100.24951171875 67 60 52
1209 999 1108.8389892578125 69 62 54
1215 999 1113.5421142578125 69 65 56
1222 999 1117.4708251953125 71 64 56
1726 999 1449.006591796875 157 177 201
562 1000 800.6259765625 86 77 70
1036 1000 994.2736206054688 73 77 88
1153 1000 1077.6873779296875 65 58 50
1158 1000 1079.222900390625 62 58 49
1162 1000 1082.2984619140625 68 64 53
1163 1000 1083.068359375 67 63 52
1166 1000 1085.380126953125 67 64 55
1171 1000 1087.6953125 74 74 64
1207 1000 1107.8975830078125 68 64 53
1209 1000 1109.4615478515625 65 58 50
1212 1000 1111.8101806640625 66 62 53
1221 1000 1117.3026123046875 70 63 57
1233 1000 1125.177734375 71 64 56
1855 1000 1533.11083984375 154 174 199
566 1001 800.951904296875 85 78 72
567 1001 800.4280395507812 86 79 73
575 1001 801.0899047851562 72 63 54
577 1001 801.0899047851562 74 70 59
579 1001 801.4243774414062 63 56 46
957 1001 952.9580078125 120 26 27
1144 1001 1072.9697265625 75 68 60
1147 1001 1073.734130859375 84 80 69
1156 1001 1078.328857421875 63 59 48
1157 1001 1079.095947265625 64 60 49
1160 1001 1081.3995361328125 65 58 48
1190 1001 1099.17236328125 64 62 50
1191 1001 1099.9495849609375 69 66 57
1192 1001 1100.72705078125 73 70 61
1207 1001 1108.521484375 65 63 51
1208 1001 1109.302978515625 64 57 49
1222 1001 1118.706787109375 73 66 60
1226 1001 1120.2789306640625 72 63 58
1227 1001 1121.0655517578125 75 65 63
1256 1001 1137.6612548828125 69 62 52
1272 1001 1148.416748046875 79 69 59
1863 1001 1538.9093017578125 152 169 195
551 1002 801.3588256835938 78 73 67
552 1002 801.8883666992188 74 69 63
564 1002 801.8035888671875 84 77 69
567 1002 801.2802124023438 90 81 74
579 1002 801.4243774414062 80 72 61
1104 1002 1047.966064453125 63 54 47
1114 1002 1055.49658203125 66 59 51
1151 1002 1075.1431884765625 61 54 44
1180 1002 1092.055419921875 64 59 53
1185 1002 1095.92431640625 62 58 49
1193 1002 1100.5789794921875 62 59 50
1197 1002 1101.35595703125 62 55 45
1198 1002 1102.1334228515625 62 55 47
1209 1002 1110.7083740234375 68 61 53
1216 1002 1114.6201171875 67 63 54
1221 1002 1116.9713134765625 77 70 62
1223 1002 1118.54052734375 76 72 63
1228 1002 1122.4696044921875 68 61 55
1235 1002 1125.618896484375 67 60 52
1236 1002 1127.638671875 56 51 45
1262 1002 1143.035400390625 68 61 51
1267 1002 1143.830810546875 78 69 62
1277 1002 1149.40771484375 64 57 49
1281 1002 1152.6014404296875 66 61 55
1752 1002 1467.13671875 151 178 197
1881 1002 1550.9532470703125 154 182 204
552 1003 802.736572265625 74 69 63
568 1003 801.0899047851562 79 70 63
582 1003 803.6528930664062 74 64 54
583 1003 804.1722412109375 72 62 52
1132 1003 1064.477783203125 72 65 55
1174 1003 1088.0625 71 67 58
1181 1003 1093.462890625 66 59 51
1203 1003 1106.652587890625 62 58 49
1251 1003 1134.91845703125 73 64 57
1267 1003 1144.43701171875 70 61 54
1523 1003 1327.9447021484375 74 76 91
1879 1003 1549.6209716796875 148 164 197
1882 1003 1552.2969970703125 142 170 191
568 1004 801.9439086914062 79 70 65
569 1004 802.46435546875 87 76 72
582 1004 803.6528930664062 73 60 51
586 1004 805.0267333984375 77 70 60
1181 1004 1094.0977783203125 60 56 44
1193 1004 1101.83935546875 63 59 50
1195 1004 1101.0635986328125 70 68 55
1197 1004 1102.615478515625 72 70 57
1198 1004 1103.39208984375 66 62 51
1210 1004 1111.1768798828125 74 67 57
1222 1004 1116.647216796875 71 67 58
1224 1004 1118.2132568359375 63 56 48
1228 1004 1121.349609375 65 58 50
1230 1004 1122.9197998046875 81 77 68
1247 1004 1132.36962890625 63 59 50
569 1005 803.318115234375 93 84 79
573 1005 802.7982177734375 109 102 92
584 1005 803.9900512695312 72 62 52
585 1005 803.4730834960938 75 66 57
968 1005 957.883056640625 130 27 31
1130 1005 1062.7515869140625 67 60 52
1145 1005 1071.858642578125 61 54 48
1151 1005 1076.4334716796875 75 66 59
1172 1005 1087.8013916015625 63 56 48
1186 1005 1097.050537109375 69 60 55
1196 1005 1102.470458984375 77 78 64
1198 1005 1104.022216796875 60 58 46
1225 1005 1119.6182861328125 66 59 51
1226 1005 1120.4017333984375 61 54 46
1248 1005 1132.19482421875 70 68 56
1249 1005 1132.983642578125 70 68 56
1272 1005 1147.2401123046875 82 73 66
1276 1005 1150.4224853515625 74 67 59
1529 1005 1332.4012451171875 132 154 175
564 1006 804.360595703125 75 66 59
573 1006 803.6528930664062 97 90 82
584 1006 803.8140258789062 81 67 58
585 1006 804.3295288085938 79 69 59
751 1006 871.6444091796875 64 51 45
1090 1006 1038.82861328125 61 59 47
1164 1006 1083.9635009765625 62 55 47
1193 1006 1100.7783203125 71 68 59
1203 1006 1106.98193359375 64 60 49
1217 1006 1113.98828125 69 69 59
1242 1006 1129.6591796875 68 64 53
1248 1006 1134.3870849609375 67 65 53
1249 1006 1133.5982666015625 68 66 54
1282 1006 1154.213623046875 77 70 62
1302 1006 1167.4013671875 75 70 64
1530 1006 1333.7755126953125 130 148 170
1532 1006 1335.4837646484375 154 166 188
1537 1006 1338.0478515625 150 169 186
576 1007 803.9900512695312 93 84 77
586 1007 805.7021484375 68 58 48
1081 1007 1035.04296875 64 60 51
1167 1007 1085.248779296875 65 61 50
1190 1007 1099.0927734375 69 62 54
1205 1007 1109.1654052734375 73 71 59
1216 1007 1113.8348388671875 62 64 53
1242 1007 1130.2764892578125 68 64 53
1245 1007 1131.063232421875 68 64 55
1250 1007 1135.001708984375 63 63 53
1263 1007 1141.3206787109375 70 63 57
1280 1007 1150.83837890625 79 72 64
1307 1007 1169.208251953125 70 65 59
573 1008 805.36328125 91 84 74
576 1008 804.845947265625 90 83 75
578 1008 804.3295288085938 90 83 75
1098 1008 1044.6324462890625 59 52 42
1099 1008 1045.37841796875 67 63 52
1183 1008 1094.3331298828125 62 55 47
1222 1008 1117.5799560546875 63 59 48
1242 1008 1129.32275390625 73 69 58
1244 1008 1130.894287109375 76 73 64
1245 1008 1131.6806640625 66 63 54
1247 1008 1133.254150390625 76 73 66
1250 1008 1134.04150390625 63 60 51
1252 1008 1135.6170654296875 68 63 57
1264 1008 1142.7235107421875 68 64 55
560 1009 805.7357177734375 81 78 71
561 1009 805.213623046875 84 81 72
570 1009 805.36328125 85 81 70
577 1009 804.67138671875 93 86 78
578 1009 805.1863403320312 83 74 67
629 1009 821.1138916015625 64 62 50
1129 1009 1061.04150390625 68 64 53
1184 1009 1095.102783203125 73 66 58
1185 1009 1095.8726806640625 68 61 51
1201 1009 1107.3228759765625 61 57 46
1202 1009 1106.5482177734375 68 61 51
1227 1009 1119.7659912109375 71 64 54
1238 1009 1126.8048095703125 66 63 54
1243 1009 1130.7271728515625 75 73 61
1247 1009 1132.298583984375 64 61 52
1248 1009 1133.084716796875 64 64 54
1255 1009 1136.2327880859375 75 72 63
561 1010 806.0670166015625 82 78 69
562 1010 806.5885009765625 77 73 62
732 1010 863.44482421875 63 53 44
1084 1010 1037.059814453125 65 59 47
1122 1010 1060.007568359375 68 64 53
1127 1010 1060.1923828125 73 69 58
1180 1010 1092.6668701171875 60 53 47
1226 1010 1119.611572265625 72 63 56
1228 1010 1121.1717529296875 74 67 57
1242 1010 1128.993408203125 75 71 62
1246 1010 1132.131591796875 68 65 56
1247 1010 1132.9169921875 70 67 58
1571 1010 1358.9554443359375 159 176 194
560 1011 807.441650390625 68 65 58
561 1011 806.9207153320312 68 65 56
563 1011 806.400634765625 74 72 60
578 1011 806.90087890625 87 78 69
580 1011 806.90087890625 87 78 69
682 1011 843.5099487304688 67 58 49
742 1011 869.0051879882812 65 55 46
1091 1011 1041.43408203125 65 58 50
1096 1011 1043.659912109375 65 58 48
1117 1011 1055.5955810546875 74 67 57
1120 1011 1057.845458984375 66 62 51
1152 1011 1074.2425537109375 93 83 74
1163 1011 1082.6014404296875 62 58 49
1217 1011 1115.5684814453125 60 56 47
1232 1011 1123.35791015625 63 60 51
1252 1011 1135.1070556640625 65 62 53
1253 1011 1135.89306640625 65 62 53
1256 1011 1138.2530517578125 72 72 60
1266 1011 1144.56103515625 78 75 66
1272 1011 1146.9320068359375 67 62 56
1274 1011 1148.5142822265625 69 64 58
563 1012 807.2552490234375 77 77 65
576 1012 808.2728271484375 91 82 73
578 1012 807.7586059570312 86 79 69
582 1012 807.2453002929688 90 81 72
584 1012 807.2453002929688 97 89 78
633 1012 823.1075439453125 61 57 48
1107 1012 1051.614501953125 67 58 51
1120 1012 1056.258056640625 71 64 54
1194 1012 1101.637451171875 75 71 62
1203 1012 1106.90283203125 65 58 48
1241 1012 1127.10693359375 63 56 46
1255 1012 1138.08349609375 65 65 53
563 1013 808.1101684570312 72 74 63
585 1013 807.5921020507812 95 89 77
588 1013 807.5921020507812 79 71 60
635 1013 825.0242309570312 59 52 44
1088 1013 1039.081298828125 63 59 47
1102 1013 1047.227294921875 70 56 53
1109 1013 1050.9471435546875 76 72 60
1116 1013 1057.5013427734375 62 55 49
1185 1013 1095.35791015625 62 57 51
1189 1013 1098.428466796875 68 64 55
568 1014 807.9313354492188 79 68 64
578 1014 808.61669921875 85 78 70
590 1014 808.4515991210938 88 79 70
1081 1014 1036.0733642578125 56 56 46
1117 1014 1055.3426513671875 70 63 55
1248 1014 1133.829345703125 73 69 58
1257 1014 1139.3199462890625 67 65 53
1266 1014 1144.039306640625 96 96 84
1278 1014 1151.931396484375 68 63 57
1522 1014 1331.7991943359375 56 60 69
1523 1014 1332.6500244140625 72 79 89
565 1015 809.8209838867188 82 75 67
644 1015 827.7855834960938 67 58 51
665 1015 836.4956665039062 57 53 44
1037 1015 1012.0242309570312 53 54 48
1098 1015 1045.6026611328125 70 63 53
1118 1015 1056.7545166015625 73 66 58
1138 1015 1066.49560546875 79 73 61
1140 1015 1068.00048828125 81 75 63
1149 1015 1074.591064453125 82 78 69
1190 1015 1100.4771728515625 64 59 53
1215 1015 1113.5838623046875 77 68 61
1247 1015 1133.6688232421875 72 68 57
1264 1015 1143.082275390625 69 67 55
1335 1015 1184.4141845703125 65 64 60
1614 1015 1387.30859375 174 195 214
570 1016 809.6449584960938 75 66 59
572 1016 809.13037109375 78 68 59
601 1016 812.4019775390625 66 56 46
602 1016 811.892822265625 65 56 47
822 1016 903.010498046875 85 73 73
826 1016 903.6398315429688 66 54 56
828 1016 906.7965698242188 64 50 49
833 1016 908.0639038085938 73 57 60
1037 1016 1010.564697265625 62 63 58
1089 1016 1039.635009765625 57 53 44
1092 1016 1040.37109375 64 62 50
1098 1016 1047.6220703125 63 59 48
1111 1016 1052.2071533203125 68 61 51
1113 1016 1053.6944580078125 66 59 51
1116 1016 1055.928466796875 67 63 52
1127 1016 1062.6533203125 61 57 46
1139 1016 1067.9068603515625 76 70 58
1210 1016 1110.353515625 82 79 70
1320 1016 1178.5999755859375 72 67 61
1614 1016 1387.8155517578125 164 178 204
1620 1016 1391.26416015625 161 176 199
570 1017 810.5023193359375 80 71 64
572 1017 809.98828125 87 77 68
573 1017 810.5023193359375 83 74 65
592 1017 810.5233154296875 94 87 77
1089 1017 1040.3125 64 57 47
1102 1017 1046.2093505859375 72 65 55
1130 1017 1064.0648193359375 61 54 44
1155 1017 1076.8570556640625 82 76 64
1321 1017 1178.400634765625 75 71 62
1338 1017 1188.01513671875 65 64 60
1628 1017 1396.947021484375 161 183 204
1890 1017 1562.634033203125 152 172 197
570 1018 811.3599853515625 82 73 66
574 1018 810.8464965820312 82 73 66
576 1018 810.8464965820312 82 73 66
577 1018 809.8222045898438 85 78 70
833 1018 909.6109008789062 68 58 57
1091 1018 1040.9903564453125 74 72 59
1093 1018 1042.4610595703125 67 65 52
1102 1018 1046.8834228515625 71 67 56
1103 1018 1047.6220703125 66 62 51
1105 1018 1049.1005859375 65 61 50
1108 1018 1051.321533203125 72 68 57
1114 1018 1054.288818359375 68 61 53
1123 1018 1059.498046875 61 54 46
1124 1018 1060.243896484375 65 58 48
1142 1018 1071.481201171875 64 55 46
1147 1018 1073.73974609375 68 61 51
1179 1018 1092.699462890625 67 64 55
1220 1018 1116.2584228515625 78 74 65
1234 1018 1124.784423828125 68 64 55
1278 1018 1154.3837890625 79 78 73
1321 1018 1179.001708984375 75 70 64
1336 1018 1187.0067138671875 64 61 56
1337 1018 1187.8089599609375 65 62 57
1341 1018 1191.0206298828125 70 65 62
1342 1018 1190.2171630859375 71 62 63
1634 1018 1400.041748046875 158 174 197
570 1019 812.2179565429688 80 71 64
574 1019 811.7050170898438 78 69 62
577 1019 810.6818237304688 79 70 63
765 1019 879.2001953125 66 53 47
1013 1019 998.4347534179688 53 54 48
1090 1019 1040.9346923828125 65 61 50
1105 1019 1049.7738037109375 58 54 43
1126 1019 1062.4019775390625 67 60 52
1128 1019 1061.65576171875 70 63 53
1129 1019 1062.4019775390625 67 63 52
1130 1019 1063.148681640625 69 62 52
1144 1019 1072.140380859375 63 54 45
1145 1019 1072.892333984375 70 61 52
1158 1019 1080.4342041015625 75 66 59
1203 1019 1105.598876953125 75 71 62
1208 1019 1110.72314453125 69 62 54
1277 1019 1148.6988525390625 78 75 68
1286 1019 1153.42138671875 88 87 82
1341 1019 1190.010498046875 70 65 61
1343 1019 1191.6160888671875 81 73 71
1344 1019 1192.41943359375 77 72 69
572 1020 812.5638427734375 82 73 66
575 1020 812.0523681640625 82 75 67
1103 1020 1048.970947265625 66 62 51
1127 1020 1061.57666015625 69 62 54
1143 1020 1072.0489501953125 71 62 53
1148 1020 1073.5516357421875 66 59 49
1153 1020 1079.578125 64 53 47
1160 1020 1081.0887451171875 70 61 54
1253 1020 1136.945068359375 77 70 60
1273 1020 1146.1771240234375 74 74 66
1282 1020 1150.8892822265625 69 68 64
1283 1020 1151.67578125 67 66 62
1284 1020 1152.4625244140625 66 62 59
1285 1020 1153.249755859375 85 82 77
1289 1020 1156.4017333984375 73 74 69
1337 1020 1189.0037841796875 76 73 68
1339 1020 1189.0037841796875 74 71 66
576 1021 813.4230346679688 80 73 65
577 1021 812.4019775390625 84 77 69
598 1021 813.4647827148438 78 71 61
602 1021 812.9600219726562 79 75 63
681 1021 843.7067260742188 61 52 45
767 1021 880.2011108398438 72 61 55
827 1021 908.1569213867188 64 51 43
849 1021 917.6458740234375 75 58 51
1126 1021 1061.4993896484375 68 61 53
1140 1021 1068.21435546875 74 67 57
1142 1021 1069.711181640625 73 66 56
1145 1021 1071.95947265625 71 64 54
1146 1021 1072.7095947265625 75 68 58
1149 1021 1074.9627685546875 77 69 58
1217 1021 1115.849853515625 63 59 48
1226 1021 1120.480712890625 64 60 49
1231 1021 1123.0859375 65 62 55
1280 1021 1149.93603515625 76 76 68
1281 1021 1150.7215576171875 81 80 75
1283 1021 1152.2933349609375 66 63 58
1284 1021 1153.079833984375 70 62 59
1285 1021 1153.8665771484375 83 78 74
1286 1021 1154.6536865234375 73 70 63
1339 1021 1189.60205078125 68 68 60
1517 1021 1332.20751953125 52 58 72
1657 1021 1415.3819580078125 170 187 203
576 1022 814.2825317382812 85 81 72
603 1022 814.3279418945312 77 73 61
604 1022 814.8331298828125 73 69 57
611 1022 816.3540649414062 63 56 46
1121 1022 1058.4541015625 70 61 54
1122 1022 1059.1959228515625 62 55 47
1150 1022 1074.87158203125 63 57 45
1151 1022 1075.62255859375 62 55 45
1156 1022 1079.3836669921875 64 57 47
1161 1022 1081.64501953125 70 61 54
1221 1022 1115.984375 76 69 59
1269 1022 1144.28759765625 76 72 63
1273 1022 1147.4188232421875 77 77 67
1280 1022 1150.5555419921875 78 78 70
1324 1022 1179.8173828125 79 76 67
1336 1022 1187.800048828125 81 85 71
1346 1022 1193.406005859375 75 79 64
1349 1022 1195.8131103515625 62 63 57
1351 1022 1197.4193115234375 60 62 57
581 1023 813.6154174804688 93 84 77
1113 1023 1055.424560546875 62 55 47
1122 1023 1059.866455078125 69 62 54
1123 1023 1060.6082763671875 67 60 52
1135 1023 1065.8128662109375 72 65 57
1142 1023 1071.037841796875 73 69 58
1143 1023 1071.785888671875 71 67 56
1150 1023 1075.532470703125 72 65 55
1158 1023 1080.0416259765625 69 62 52
1160 1023 1081.5479736328125 71 62 55
1161 1023 1082.3017578125 68 61 53
1244 1023 1131.817138671875 67 63 52
1336 1023 1188.400634765625 69 73 58
1338 1023 1187.601318359375 75 82 66
1345 1023 1193.202392578125 81 85 71
1347 1023 1194.805419921875 62 66 52
1476 1023 1309.3631591796875 50 56 70
1478 1023 1311.0499267578125 51 58 74
1482 1023 1312.737548828125 54 62 75
1483 1023 1313.581787109375 48 54 68
1486 1023 1313.581787109375 48 56 69
1487 1023 1314.4261474609375 56 65 80
1488 1023 1315.270751953125 48 57 72
1490 1023 1316.9605712890625 47 56 71
1492 1023 1318.6512451171875 60 66 80
1495 1023 1319.496826171875 50 59 74
583 1024 814.4771118164062 80 73 67
584 1024 813.9705200195312 81 73 70
585 1024 814.4771118164062 90 83 77
602 1024 815.5519409179688 81 74 64
608 1024 816.5592651367188 72 64 53
1099 1024 1047.2669677734375 61 57 46
1102 1024 1048.00048828125 66 59 49
1119 1024 1058.316162109375 68 61 51
1122 1024 1060.53759765625 63 56 48
1135 1024 1066.480224609375 69 62 52
1137 1024 1067.9700927734375 64 55 46
1167 1024 1085.22119140625 64 60 49
1168 1024 1085.97607421875 64 60 49
1174 1024 1088.99951171875 60 53 45
1198 1024 1103.4459228515625 64 57 49
1281 1024 1152.5802001953125 60 53 45
1346 1024 1194.60205078125 67 70 59
1486 1024 1314.117919921875 70 81 103
1488 1024 1315.8062744140625 65 76 98
1489 1024 1316.650634765625 66 74 95
583 1025 815.3391723632812 75 70 66
585 1025 815.3391723632812 84 77 71
606 1025 816.4165649414062 81 73 62
798 1025 894.8726196289062 67 54 48
1118 1025 1056.77294921875 69 62 52
1126 1025 1060.46875 61 54 44
1132 1025 1064.9178466796875 75 71 60
1135 1025 1067.1480712890625 68 64 53
1156 1025 1079.8564453125 67 60 50
1157 1025 1080.607666015625 60 56 45
1161 1025 1083.6165771484375 73 66 56
1188 1025 1097.9954833984375 66 59 49
1189 1025 1098.756103515625 66 59 49
1199 1025 1103.328125 68 61 53
1215 1025 1114.562744140625 64 60 48
1228 1025 1121.7508544921875 76 74 62
1229 1025 1122.5230712890625 73 71 59
1238 1025 1128.429931640625 66 63 54
1255 1025 1138.5169677734375 68 64 55
1265 1025 1143.972900390625 75 71 62
1266 1025 1144.753662109375 62 59 50
1267 1025 1145.5347900390625 62 59 50
1281 1025 1152.5802001953125 58 51 43
1282 1025 1153.3646240234375 60 53 47
1301 1025 1166.75146484375 69 62 54
1452 1025 1295.6055908203125 46 54 67
1468 1025 1305.6898193359375 49 57 70
1483 1025 1314.6546630859375 83 95 117
1486 1025 1314.6546630859375 77 93 119
1502 1025 1324.793212890625 74 81 109
577 1026 815.84619140625 76 72 63
585 1026 816.2015380859375 86 81 75
587 1026 815.696044921875 80 76 67
799 1026 895.0558471679688 66 56 47
1107 1026 1050.8267822265625 66 59 49
1134 1026 1067.0731201171875 62 55 47
1148 1026 1074.5255126953125 65 58 48
1152 1026 1077.5179443359375 65 58 48
1154 1026 1079.0167236328125 63 59 48
1171 1026 1088.042724609375 63 60 51
1178 1026 1091.064208984375 73 69 60
1198 1026 1103.212158203125 63 56 48
1212 1026 1111.6204833984375 69 60 51
1213 1026 1112.3870849609375 73 64 55
1223 1026 1118.533447265625 65 61 49
1261 1026 1141.480224609375 66 62 53
1338 1026 1188.8048095703125 55 56 51
1342 1026 1192.0003662109375 61 52 53
1346 1026 1195.2008056640625 54 55 50
1433 1026 1285.8428955078125 47 55 68
1438 1026 1287.5169677734375 52 59 75
1439 1026 1288.3543701171875 53 60 76
1474 1026 1308.755126953125 76 84 105
587 1027 816.5592651367188 86 82 73
589 1027 816.5592651367188 84 81 74
608 1027 817.64599609375 84 72 60
609 1027 818.1466674804688 72 62 52
615 1027 818.6482543945312 58 54 45
641 1027 829.39013671875 57 55 43
950 1027 966.8391723632812 61 53 50
1080 1027 1036.2418212890625 55 50 44
1081 1027 1036.9666748046875 57 53 44
1128 1027 1063.2939453125 62 58 47
1132 1027 1066.2579345703125 70 63 53
1134 1027 1067.742431640625 65 58 50
1149 1027 1075.937255859375 73 66 56
1150 1027 1076.6846923828125 72 65 55
1157 1027 1079.6787109375 69 65 54
1158 1027 1080.4281005859375 77 70 62
1176 1027 1090.208251953125 67 63 54
1196 1027 1102.336669921875 75 68 60
1197 1027 1103.097900390625 76 69 61
1214 1027 1113.7957763671875 69 62 52
1256 1027 1138.2200927734375 78 74 63
1283 1027 1155.3895263671875 59 54 48
1336 1027 1187.812255859375 60 54 56
1424 1027 1282.21142578125 53 60 78
1425 1027 1281.376220703125 52 61 76
1427 1027 1283.0467529296875 57 65 84
1428 1027 1283.8824462890625 57 65 84
1431 1027 1284.71826171875 54 57 74
1432 1027 1285.5543212890625 59 64 83
1433 1027 1286.3907470703125 58 65 84
1434 1027 1287.227294921875 57 66 83
1438 1027 1288.0640869140625 62 68 90
1439 1027 1288.901123046875 64 71 90
1440 1027 1289.7384033203125 62 69 88
1441 1027 1290.5758056640625 57 64 83
1443 1027 1292.25146484375 77 84 103
1510 1027 1330.0902099609375 112 119 147
586 1028 816.919189453125 84 77 69
587 1028 817.4227905273438 89 82 74
590 1028 816.4165649414062 86 79 73
591 1028 816.919189453125 83 76 70
612 1028 819.5132446289062 65 58 50
767 1028 880.86376953125 59 50 41
1179 1028 1093.12939453125 71 68 59
1185 1028 1096.1551513671875 79 77 65
1205 1028 1107.5562744140625 64 60 51
1214 1028 1114.43798828125 64 57 49
1219 1028 1116.738525390625 76 69 59
1239 1028 1128.290771484375 83 79 68
1240 1028 1129.063720703125 78 76 64
1261 1028 1142.7357177734375 59 55 44
1268 1028 1146.6298828125 61 54 48
1271 1028 1148.970458984375 59 52 46
1320 1028 1178.0831298828125 69 64 60
1325 1028 1180.83740234375 58 54 51
1355 1028 1203.6112060546875 58 63 67
1420 1028 1279.4237060546875 49 55 81
1423 1028 1281.9266357421875 66 74 95
1426 1028 1282.761474609375 59 70 92
1427 1028 1283.5965576171875 71 79 102
1428 1028 1284.4317626953125 71 77 103
1430 1028 1286.10302734375 62 64 89
1431 1028 1285.267333984375 69 71 96
1433 1028 1286.93896484375 64 70 96
1434 1028 1287.7752685546875 75 81 105
1435 1028 1288.6116943359375 62 68 92
1437 1028 1287.7752685546875 78 83 112
1438 1028 1288.6116943359375 72 76 103
1439 1028 1289.4483642578125 76 80 107
1440 1028 1290.2852783203125 73 77 102
1441 1028 1291.1224365234375 71 75 100
1442 1028 1291.959716796875 80 85 107
1444 1028 1293.6351318359375 94 102 125
1447 1028 1294.4732666015625 74 84 111
1448 1028 1295.3115234375 73 83 108
1449 1028 1296.1500244140625 81 91 116
1509 1028 1329.7767333984375 138 147 176
1510 1028 1330.622802734375 136 141 170
591 1029 817.7835693359375 79 70 65
1116 1029 1055.121337890625 74 65 58
1151 1029 1078.7608642578125 68 62 50
1162 1029 1083.2510986328125 67 65 53
1169 1029 1086.252685546875 62 58 49
1174 1029 1090.0137939453125 63 59 50
1177 1029 1092.275146484375 75 71 62
1179 1029 1093.78466796875 64 61 52
1195 1029 1100.59716796875 70 66 57
1197 1029 1102.115234375 62 59 50
1202 1029 1105.917236328125 72 65 57
1234 1029 1125.0679931640625 70 66 55
1257 1029 1138.9969482421875 60 56 45
1279 1029 1152.255615234375 62 55 49
1281 1029 1155.0657958984375 62 57 53
1323 1029 1179.8551025390625 62 58 55
1343 1029 1193.400634765625 62 60 61
1344 1029 1194.2001953125 60 60 58
1422 1029 1281.6434326171875 75 82 108
1424 1029 1283.3121337890625 66 78 100
1433 1029 1287.4879150390625 83 90 119
1434 1029 1288.32373046875 90 95 124
1437 1029 1288.32373046875 85 90 120
1438 1029 1289.1597900390625 89 92 123
1439 1029 1289.99609375 93 97 126
1440 1029 1290.8326416015625 82 86 115
1441 1029 1291.66943359375 72 76 105
1442 1029 1292.5064697265625 78 82 109
1443 1029 1293.34375 89 95 121
1444 1029 1294.18115234375 100 107 135
1729 1029 1462.776123046875 161 181 205
591 1030 818.6482543945312 89 82 76
1095 1030 1044.112060546875 71 67 58
1150 1030 1078.6793212890625 72 65 55
1174 1030 1090.6717529296875 70 66 57
1193 1030 1099.733154296875 72 68 59
1198 1030 1103.5252685546875 65 65 55
1202 1030 1106.56591796875 73 69 60
1232 1030 1124.1658935546875 58 51 43
1233 1030 1124.935546875 63 56 46
1279 1030 1152.878173828125 57 52 46
1308 1030 1170.1708984375 75 72 63
1328 1030 1183.26708984375 58 59 53
1370 1030 1253.389404296875 51 58 77
1435 1030 1289.70849609375 93 98 128
1439 1030 1290.54443359375 107 111 140
1440 1030 1291.380615234375 103 106 139
1449 1030 1297.240478515625 113 120 149
1514 1030 1333.3809814453125 158 173 196
591 1031 819.5132446289062 85 80 74
597 1031 819.01220703125 84 80 71
1095 1031 1044.799072265625 75 68 60
1096 1031 1045.5257568359375 72 65 57
1133 1031 1066.052490234375 71 64 56
1135 1031 1067.53173828125 64 57 47
1143 1031 1071.2371826171875 63 56 46
1171 1031 1089.0753173828125 60 58 46
1175 1031 1090.5782470703125 71 67 58
1177 1031 1092.0828857421875 69 65 54
1184 1031 1095.851318359375 59 55 46
1188 1031 1096.6060791015625 84 80 71
1196 1031 1102.6590576171875 65 62 53
1218 1031 1115.60302734375 76 69 61
1219 1031 1116.3677978515625 66 57 50
1253 1031 1137.1552734375 65 58 48
1265 1031 1142.5870361328125 81 77 66
1295 1031 1164.146484375 75 70 64
1316 1031 1175.52587890625 65 62 53
1329 1031 1183.4530029296875 54 53 48
1364 1031 1250.6453857421875 49 55 67
1370 1031 1253.9512939453125 56 62 86
1371 1031 1254.7784423828125 62 68 92
1372 1031 1255.6058349609375 65 65 89
1448 1031 1296.9490966796875 126 132 166
1454 1031 1299.462158203125 129 136 164
597 1032 819.8780517578125 87 80 72
612 1032 821.482177734375 90 84 70
614 1032 821.482177734375 73 65 54
828 1032 908.3705444335938 73 60 51
1102 1032 1049.1220703125 66 62 53
1103 1032 1049.8504638671875 62 58 49
1111 1032 1053.4993896484375 78 69 62
1123 1032 1060.830322265625 68 61 53
1183 1032 1095.753662109375 68 64 55
1191 1032 1099.527587890625 73 69 60
1206 1032 1109.3853759765625 70 63 55
1230 1032 1122.3729248046875 72 63 56
1232 1032 1123.907958984375 67 60 52
1252 1032 1137.013671875 62 55 45
1266 1032 1143.993408203125 72 68 57
1267 1032 1144.770751953125 69 65 54
1291 1032 1160.3878173828125 72 67 63
1364 1032 1251.20947265625 55 65 77
1370 1032 1254.5137939453125 61 65 92
1371 1032 1255.340576171875 73 74 102
1372 1032 1256.1676025390625 69 68 99
1374 1032 1255.340576171875 62 54 93
1375 1032 1256.1676025390625 67 59 98
1376 1032 1256.994873046875 74 68 102
1377 1032 1257.822265625 62 59 88
1380 1032 1258.6500244140625 69 66 95
1381 1032 1259.47802734375 59 56 85
1389 1032 1263.621826171875 49 52 71
1390 1032 1264.4512939453125 56 61 80
1398 1032 1269.433349609375 56 61 81
1448 1032 1297.49609375 132 137 169
1453 1032 1299.1705322265625 130 139 168
1454 1032 1300.008056640625 139 149 174
1455 1032 1300.8458251953125 145 152 178
1521 1032 1337.8314208984375 173 189 205
1522 1032 1338.677734375 173 189 205
1523 1032 1339.524169921875 167 180 199
597 1033 820.7442016601562 84 77 69
599 1033 820.7442016601562 85 80 74
600 1033 819.7468872070312 90 83 77
601 1033 820.2450561523438 93 84 79
703 1033 854.8075561523438 63 59 48
1105 1033 1049.1220703125 62 55 47
1119 1033 1057.8927001953125 76 69 59
1186 1033 1096.4110107421875 72 67 61
1194 1033 1102.450439453125 71 64 56
1212 1033 1112.3173828125 74 67 57
1232 1033 1122.2481689453125 66 59 51
1250 1033 1136.100830078125 82 78 66
1252 1033 1136.100830078125 75 71 60
1264 1033 1143.0704345703125 69 62 52
1266 1033 1144.623046875 68 64 53
1268 1033 1146.1771240234375 64 57 49
1270 1033 1146.1771240234375 70 63 55
1291 1033 1161.0086669921875 68 63 59
1304 1033 1168.8631591796875 56 51 45
1368 1033 1253.4249267578125 65 69 94
1370 1033 1255.076904296875 75 75 101
1371 1033 1255.9033203125 78 78 106
1374 1033 1255.9033203125 68 62 100
1375 1033 1256.7298583984375 75 69 107
1376 1033 1257.5567626953125 72 68 101
1377 1033 1258.3839111328125 74 73 104
1381 1033 1260.0389404296875 78 77 109
1382 1033 1260.8668212890625 70 69 101
1383 1033 1261.6949462890625 55 56 86
1387 1033 1262.5233154296875 76 78 103
1388 1033 1263.3519287109375 62 67 89
1395 1033 1267.4986572265625 68 83 102
1397 1033 1269.1591796875 70 78 99
1404 1033 1274.4261474609375 63 70 89
1455 1033 1301.3919677734375 151 158 184
1456 1033 1302.2296142578125 139 144 173
1532 1033 1345.9854736328125 174 187 206
1533 1033 1346.8333740234375 162 177 196
601 1034 821.112060546875 88 79 74
1097 1034 1048.3138427734375 59 55 46
1113 1034 1056.326171875 61 54 46
1188 1034 1098.575439453125 67 63 52
1189 1034 1099.329345703125 69 65 54
1235 1034 1125.190185546875 75 66 59
1239 1034 1128.2611083984375 73 69 60
1241 1034 1129.7987060546875 63 59 50
1248 1034 1133.64892578125 66 62 51
1249 1034 1134.420166015625 60 56 44
1259 1034 1141.095947265625 63 56 50
1265 1034 1144.4771728515625 67 60 52
1276 1034 1151.4742431640625 60 55 49
1291 1034 1161.6298828125 58 53 50
1296 1034 1163.197265625 72 58 55
1297 1034 1163.9815673828125 74 60 57
1298 1034 1164.76611328125 75 62 56
1299 1034 1165.5509033203125 79 66 60
1302 1034 1167.907470703125 69 62 54
1303 1034 1168.6937255859375 60 55 49
1375 1034 1257.292724609375 82 83 114
1376 1034 1258.1192626953125 86 86 114
1377 1034 1258.946044921875 82 82 110
1378 1034 1259.77294921875 85 89 116
1381 1034 1260.6002197265625 75 80 109
1382 1034 1261.427734375 84 88 117
1388 1034 1263.9117431640625 73 79 103
1389 1034 1264.740234375 68 76 99
1390 1034 1265.569091796875 73 80 106
1392 1034 1267.227294921875 85 93 116
1393 1034 1268.0567626953125 76 87 109
1395 1034 1268.0567626953125 66 81 104
1398 1034 1270.5467529296875 99 101 126
1403 1034 1273.0389404296875 74 82 105
1537 1034 1349.059326171875 176 187 205
1539 1034 1350.7557373046875 179 191 203
1105 1035 1051.1802978515625 63 61 49
1106 1035 1051.9073486328125 60 53 45
1135 1035 1068.0135498046875 62 55 47
1136 1035 1068.750732421875 67 63 54
1174 1035 1090.9710693359375 72 63 54
1188 1035 1099.23291015625 68 64 53
1214 1035 1115.13671875 65 61 50
1237 1035 1127.365966796875 68 61 53
1241 1035 1130.43798828125 56 53 44
1246 1035 1132.7457275390625 66 62 53
1248 1035 1134.2861328125 68 64 53
1260 1035 1141.2353515625 63 56 50
1261 1035 1142.0091552734375 61 54 46
1268 1035 1147.436279296875 69 62 54
1290 1035 1161.4688720703125 59 54 51
1291 1035 1162.251708984375 58 54 51
1299 1035 1166.170654296875 68 55 49
1300 1035 1166.9554443359375 67 56 50
1301 1035 1167.7406005859375 79 70 63
1382 1035 1261.9892578125 87 92 121
1388 1035 1264.47216796875 77 84 110
1389 1035 1265.3004150390625 83 93 118
1390 1035 1266.1287841796875 77 87 114
1391 1035 1266.9573974609375 81 91 118
1392 1035 1267.7862548828125 91 101 126
1395 1035 1268.6153564453125 70 84 110
1401 1035 1271.934326171875 90 95 124
1544 1035 1352.98193359375 161 178 196
599 1036 823.3444213867188 86 77 70
700 1036 854.5841064453125 60 53 45
1053 1036 1022.4773559570312 55 50 44
1122 1036 1061.3472900390625 65 58 50
1148 1036 1076.816162109375 67 57 48
1179 1036 1093.1317138671875 67 60 52
1187 1036 1099.1383056640625 74 67 57
1198 1036 1103.6597900390625 66 63 54
1199 1036 1104.414794921875 65 62 53
1201 1036 1105.9259033203125 69 65 54
1207 1036 1110.4683837890625 60 56 45
1219 1036 1116.5465087890625 70 66 57
1221 1036 1118.06982421875 78 74 65
1222 1036 1118.83203125 66 62 53
1246 1036 1133.38427734375 57 53 44
1252 1036 1135.694091796875 62 58 47
1254 1036 1137.2357177734375 67 63 52
1259 1036 1141.095947265625 64 60 49
1260 1036 1141.869140625 63 59 50
1274 1036 1151.1737060546875 57 52 48
1275 1036 1151.951416015625 65 60 56
1285 1036 1158.184814453125 64 59 55
1288 1036 1160.5279541015625 66 58 55
1295 1036 1163.65673828125 68 60 57
1299 1036 1166.7908935546875 74 65 60
1302 1036 1167.5753173828125 78 75 66
1303 1036 1168.3599853515625 65 62 53
1322 1036 1180.9593505859375 64 60 57
1389 1036 1265.8609619140625 87 99 123
1390 1036 1266.68896484375 86 98 124
1392 1036 1268.3458251953125 97 109 133
1393 1036 1269.174560546875 84 96 120
1395 1036 1269.174560546875 87 99 125
1396 1036 1270.0035400390625 89 94 123
1400 1036 1271.662353515625 88 93 125
1402 1036 1273.322021484375 100 106 138
1403 1036 1274.1522216796875 96 103 132
1404 1036 1274.9827880859375 97 102 134
1475 1036 1313.9273681640625 163 178 199
710 1037 858.1514892578125 60 53 45
1103 1037 1051.1041259765625 57 52 46
1104 1037 1051.829345703125 63 59 50
1105 1037 1052.554931640625 64 60 51
1113 1037 1055.4620361328125 65 58 50
1212 1037 1113.395751953125 65 61 52
1216 1037 1116.4344482421875 72 65 59
1233 1037 1125.5869140625 75 68 58
1234 1037 1126.35205078125 81 74 64
1236 1037 1127.8834228515625 75 71 60
1241 1037 1130.1832275390625 67 65 53
1246 1037 1134.0233154296875 61 57 48
1254 1037 1137.87255859375 57 53 42
1256 1037 1139.414794921875 59 55 44
1257 1037 1140.1864013671875 62 60 48
1260 1037 1142.50341796875 60 56 45
1261 1037 1143.2764892578125 65 61 50
1264 1037 1145.59765625 64 60 51
1272 1037 1150.24951171875 56 53 46
1279 1037 1155.6923828125 65 62 57
1286 1037 1159.5904541015625 71 66 60
1288 1037 1161.1519775390625 58 53 49
1298 1037 1166.6280517578125 78 70 67
1302 1037 1168.195556640625 73 71 59
1303 1037 1168.9798583984375 68 66 54
1309 1037 1173.6925048828125 60 59 54
1395 1037 1269.7342529296875 95 105 132
1396 1037 1270.5628662109375 107 112 142
1400 1037 1272.220947265625 105 111 145
1402 1037 1273.8798828125 106 112 144
1403 1037 1274.709716796875 105 111 143
1404 1037 1275.5399169921875 95 101 133
1406 1037 1274.709716796875 109 115 149
1407 1037 1275.5399169921875 108 114 148
1408 1037 1276.3702392578125 102 106 141
1409 1037 1277.2008056640625 107 113 147
1476 1037 1315.3101806640625 172 185 202
1477 1037 1316.149658203125 172 185 202
1478 1037 1316.9893798828125 156 164 187
1899 1037 1575.3072509765625 155 177 201
656 1038 838.28515625 62 55 47
951 1038 968.813720703125 65 58 50
1116 1038 1058.3316650390625 65 61 52
1226 1038 1120.888916015625 64 60 49
1228 1038 1122.4134521484375 65 61 52
1233 1038 1126.2313232421875 70 63 53
1235 1038 1127.7611083984375 68 62 50
1239 1038 1129.292236328125 63 59 50
1242 1038 1131.591796875 56 53 44
1243 1038 1132.3590087890625 76 73 64
1254 1038 1138.510009765625 61 54 46
1257 1038 1140.822509765625 62 58 49
1264 1038 1144.683837890625 63 60 51
1284 1038 1158.656494140625 72 68 59
1288 1038 1161.776611328125 60 57 50
1291 1038 1164.1202392578125 75 75 67
1296 1038 1165.684326171875 68 63 57
1303 1038 1169.600341796875 72 70 57
1304 1038 1170.384521484375 57 54 45
1310 1038 1175.0965576171875 64 61 54
1400 1038 1272.780029296875 103 112 143
1402 1038 1274.4383544921875 107 118 148
1403 1038 1275.267822265625 100 111 139
1404 1038 1276.0975341796875 96 105 134
1406 1038 1275.267822265625 103 109 141
1407 1038 1276.0975341796875 113 120 149
1409 1038 1277.7578125 101 112 140
1482 1038 1319.2119140625 168 186 200
1483 1038 1320.0518798828125 165 181 197
1487 1038 1320.89208984375 173 189 205
1568 1038 1369.0091552734375 173 190 206
601 1039 824.5829467773438 88 84 73
1106 1039 1053.20703125 64 60 49
1149 1039 1075.8773193359375 67 58 51
1158 1039 1081.0537109375 66 59 49
1195 1039 1103.3717041015625 68 61 53
1205 1039 1109.402099609375 62 55 47
1220 1039 1116.9749755859375 70 65 59
1222 1039 1118.4940185546875 68 61 53
1237 1039 1128.405029296875 62 55 45
1247 1039 1133.767578125 60 53 45
1255 1039 1139.91796875 75 68 60
1258 1039 1142.230224609375 58 54 45
1272 1039 1151.51123046875 61 58 49
1295 1039 1165.525634765625 59 54 50
1296 1039 1166.307373046875 68 63 57
1297 1039 1167.089599609375 83 79 70
1302 1039 1169.4378662109375 95 93 78
1304 1039 1171.005126953125 63 60 51
1406 1039 1275.826416015625 103 110 139
1407 1039 1276.65576171875 130 137 166
1409 1039 1278.3153076171875 95 106 134
1488 1039 1322.2745361328125 162 180 194
1490 1039 1323.9554443359375 153 165 187
610 1040 824.83935546875 90 75 72
611 1040 825.33203125 96 85 79
725 1040 865.0578002929688 60 51 42
735 1040 869.50390625 62 55 47
737 1040 870.6233520507812 58 54 43
905 1040 946.7185668945312 68 58 48
1009 1040 1000.2099609375 53 53 45
1048 1040 1020.3749389648438 59 54 48
1110 1040 1054.6568603515625 68 62 50
1184 1040 1097.3663330078125 70 63 55
1202 1040 1107.794677734375 61 54 46
1222 1040 1119.144287109375 66 59 51
1223 1040 1119.904052734375 63 56 48
1255 1040 1140.5560302734375 62 55 49
1259 1040 1143.6380615234375 57 53 44
1265 1040 1146.725830078125 59 55 46
1357 1040 1249.9219970703125 107 117 144
1408 1040 1278.0438232421875 123 132 161
1579 1040 1375.1661376953125 169 186 202
1822 1040 1526.7442626953125 160 185 207
611 1041 826.2021484375 95 84 78
718 1041 862.0469970703125 60 51 44
822 1041 908.6126708984375 63 52 46
905 1041 947.4835205078125 73 63 53
1066 1041 1030.2567138671875 66 61 57
1089 1041 1043.0882568359375 64 55 46
1100 1041 1049.5609130859375 66 59 49
1114 1041 1058.935791015625 61 54 44
1123 1041 1061.1588134765625 62 55 47
1133 1041 1066.9508056640625 60 56 47
1136 1041 1069.1458740234375 65 61 50
1174 1041 1090.5631103515625 68 61 53
1177 1041 1092.7987060546875 70 63 57
1236 1041 1128.285400390625 62 51 45
1270 1041 1150.5933837890625 57 53 44
1272 1041 1152.142822265625 61 54 48
1302 1041 1170.6822509765625 73 71 56
1303 1041 1170.8428955078125 60 58 46
1357 1041 1250.4910888671875 101 111 138
1423 1041 1286.9051513671875 155 163 186
1509 1041 1335.13525390625 180 188 211
611 1042 827.0725708007812 95 86 79
613 1042 827.0725708007812 91 87 78
625 1042 828.814208984375 82 72 63
718 1042 862.8847045898438 66 59 51
738 1042 871.1630249023438 61 54 46
1107 1042 1053.8634033203125 62 55 45
1139 1042 1072.0247802734375 61 54 46
1140 1042 1072.078857421875 67 58 51
1165 1042 1086.0322265625 78 74 63
1167 1042 1087.5155029296875 74 67 59
1219 1042 1117.51953125 67 63 54
1224 1042 1121.31396484375 59 52 46
1234 1042 1127.404541015625 63 54 49
1235 1042 1128.16748046875 62 55 47
1238 1042 1130.458740234375 66 57 48
1247 1042 1135.0511474609375 57 52 46
1270 1042 1151.226318359375 61 57 48
1357 1042 1251.060791015625 107 113 139
1421 1042 1285.79931640625 145 149 178
1423 1042 1287.4610595703125 153 157 182
1424 1042 1288.292236328125 139 144 173
1509 1042 1335.6739501953125 170 178 201
1515 1042 1339.0447998046875 177 190 209
1599 1042 1389.00146484375 157 174 192
629 1043 831.0475463867188 71 62 53
1051 1043 1023.2130737304688 60 57 48
1120 1043 1060.3494873046875 61 52 45
1162 1043 1083.8104248046875 62 58 47
1204 1043 1109.1099853515625 63 59 48
1220 1043 1118.9298095703125 70 66 55
1227 1043 1124.244140625 63 56 50
1238 1043 1131.1038818359375 59 52 42
1246 1043 1134.927734375 59 54 48
1256 1043 1142.602783203125 59 51 48
1297 1043 1168.960693359375 64 59 53
1356 1043 1250.8096923828125 116 121 140
1357 1043 1251.6309814453125 121 125 150
1517 1043 1341.268798828125 163 174 192
1518 1043 1342.1121826171875 158 166 189
1522 1043 1342.9556884765625 170 183 200
1523 1043 1343.7994384765625 165 176 196
1605 1043 1392.9378662109375 160 177 197
596 1044 826.3201293945312 62 57 51
597 1044 826.8155517578125 71 64 56
600 1044 827.5651245117188 95 91 82
712 1044 861.30712890625 59 55 44
719 1044 864.0167846679688 59 55 44
720 1044 864.5611572265625 60 56 45
964 1044 975.952880859375 59 50 43
1065 1044 1031.6690673828125 63 56 50
1103 1044 1052.3612060546875 60 53 45
1181 1044 1095.544189453125 65 61 52
1192 1044 1102.2640380859375 64 57 49
1205 1044 1110.52099609375 60 56 45
1218 1044 1118.0684814453125 63 56 48
1233 1044 1127.93701171875 62 58 49
1243 1044 1133.277099609375 60 57 48
1249 1044 1137.86865234375 55 52 45
1268 1044 1150.9483642578125 56 53 46
1440 1044 1296.89013671875 162 167 189
1441 1044 1297.7230224609375 153 158 180
598 1045 827.189208984375 72 68 59
1093 1045 1045.8800048828125 56 52 43
1103 1045 1050.897705078125 60 53 45
1104 1045 1051.6163330078125 59 52 44
1113 1045 1056.6597900390625 67 58 51
1131 1045 1067.5416259765625 65 61 50
1159 1045 1082.94140625 63 61 49
1160 1045 1083.6793212890625 64 62 49
1182 1045 1096.956298828125 71 67 58
1191 1045 1102.1796875 61 57 48
1218 1045 1118.7225341796875 66 59 51
1220 1045 1120.2357177734375 63 59 48
1221 1045 1120.992919921875 59 57 45
1249 1045 1138.5113525390625 66 63 56
1294 1045 1167.87158203125 57 53 50
1296 1045 1167.2449951171875 68 63 59
1441 1045 1298.2764892578125 154 156 181
1533 1045 1351.6260986328125 175 189 202
1534 1045 1352.4710693359375 172 185 202
1621 1045 1403.380615234375 176 193 211
1622 1045 1404.2364501953125 171 190 207
615 1046 830.0674438476562 85 76 69
906 1046 948.7549438476562 63 60 45
908 1046 949.2655029296875 63 60 45
979 1046 985.4663696289062 63 54 47
980 1046 984.794921875 59 52 44
1021 1046 1007.3171997070312 60 57 48
1107 1046 1054.4691162109375 73 66 58
1121 1046 1060.965576171875 69 62 52
1133 1046 1068.2265625 64 55 48
1144 1046 1073.2869873046875 67 60 50
1152 1046 1078.465576171875 68 61 53
1217 1046 1118.6214599609375 66 59 51
1268 1046 1152.2196044921875 56 56 48
1287 1046 1163.055419921875 62 58 55
1543 1046 1356.38671875 168 180 202
1544 1046 1357.232421875 165 182 200
600 1047 828.4352416992188 68 64 55
615 1047 830.9398193359375 86 77 70
622 1047 830.9398193359375 93 85 74
704 1047 859.553955078125 76 70 58
714 1047 863.8339233398438 64 62 47
1069 1047 1033.089111328125 55 51 40
1078 1047 1038.03369140625 67 60 52
1118 1047 1059.4876708984375 67 60 50
1121 1047 1061.65576171875 73 66 56
1133 1047 1067.457275390625 74 67 59
1174 1047 1092.3538818359375 63 61 49
1222 1047 1122.4031982421875 72 65 55
1235 1047 1131.4049072265625 63 56 50
1238 1047 1133.0423583984375 61 54 48
1378 1047 1265.4200439453125 133 137 166
1389 1047 1270.3653564453125 145 149 176
1391 1047 1272.0157470703125 149 157 178
1392 1047 1272.84130859375 152 163 181
1393 1047 1273.6671142578125 144 155 173
1546 1047 1359.4576416015625 161 178 198
1633 1047 1410.406982421875 176 194 214
1634 1047 1411.263671875 167 184 202
1635 1047 1412.120361328125 168 185 205
600 1048 829.3057250976562 74 69 63
638 1048 834.5346069335938 66 57 48
850 1048 922.0656127929688 61 54 44
1076 1048 1037.325927734375 62 55 45
1079 1048 1039.4478759765625 62 53 44
1088 1048 1044.4161376953125 57 54 45
1118 1048 1060.1796875 67 60 50
1130 1048 1065.9666748046875 70 63 57
1131 1048 1066.692138671875 66 59 53
1133 1048 1068.1441650390625 68 61 53
1152 1048 1079.8240966796875 62 58 49
1169 1048 1088.656005859375 57 53 44
1218 1048 1120.0321044921875 65 58 50
1220 1048 1121.5435791015625 62 53 46
1221 1048 1122.2999267578125 75 66 57
1223 1048 1123.8135986328125 79 70 61
1225 1048 1125.328857421875 72 63 56
1227 1048 1126.8455810546875 66 57 50
1228 1048 1126.0870361328125 64 55 50
1264 1048 1149.7742919921875 65 58 52
1390 1048 1271.7554931640625 147 148 178
1391 1048 1272.5804443359375 149 150 178
1393 1048 1274.231201171875 150 154 179
1396 1048 1275.056884765625 152 163 181
600 1049 830.176513671875 66 61 55
660 1049 842.1995239257812 74 68 52
716 1049 864.9832153320312 58 52 40
771 1049 887.6513671875 72 61 55
934 1049 963.2828979492188 59 49 40
963 1049 977.0388793945312 66 59 49
1130 1049 1066.655517578125 62 53 48
1131 1049 1067.3804931640625 66 57 52
1141 1049 1072.46728515625 86 82 73
1142 1049 1073.1956787109375 74 70 59
1143 1049 1073.924560546875 78 76 64
1151 1049 1079.771240234375 63 56 48
1159 1049 1084.17431640625 68 64 53
1177 1049 1095.2484130859375 57 53 44
1180 1049 1095.989990234375 60 53 47
1214 1049 1117.6712646484375 61 54 46
1216 1049 1119.1787109375 59 52 46
1227 1049 1127.4971923828125 61 52 47
1251 1049 1141.972412109375 61 53 50
1270 1049 1153.492919921875 68 64 55
1393 1049 1274.795654296875 149 151 176
1561 1049 1368.98828125 164 183 200
1562 1049 1369.8358154296875 168 185 201
1563 1049 1370.683349609375 173 190 206
1653 1049 1424.2994384765625 148 177 195
752 1050 878.922607421875 62 55 45
753 1050 879.478271484375 64 57 47
754 1050 880.03466796875 60 51 42
771 1050 886.772216796875 64 55 46
1039 1050 1017.794189453125 56 52 43
1060 1050 1028.91064453125 62 53 44
1135 1050 1068.794189453125 69 62 54
1137 1050 1070.2452392578125 57 50 42
1142 1050 1073.880859375 96 92 80
1146 1050 1076.797119140625 60 56 45
1175 1050 1094.438720703125 59 52 44
1213 1050 1117.576416015625 59 55 46
1254 1050 1144.9127197265625 60 55 49
1279 1050 1158.7584228515625 65 60 56
1393 1050 1275.3607177734375 147 155 176
1403 1050 1280.314453125 154 165 185
1404 1050 1281.140869140625 145 151 175
1568 1050 1373.7572021484375 163 176 195
1569 1050 1374.6053466796875 167 179 201
1570 1050 1375.4537353515625 157 167 192
1654 1050 1425.6707763671875 152 170 194
1659 1050 1428.2471923828125 162 192 203
608 1051 831.4288940429688 81 79 67
772 1051 888.1627197265625 64 55 46
914 1051 952.4730834960938 60 51 42
937 1051 964.0440673828125 61 52 43
946 1051 968.596923828125 66 60 48
968 1051 980.5233154296875 61 54 44
1000 1051 995.2215576171875 59 52 44
1115 1051 1058.663818359375 63 56 46
1128 1051 1066.5880126953125 74 67 57
1135 1051 1069.4830322265625 61 54 46
1167 1051 1089.20751953125 59 55 46
1239 1051 1134.11328125 65 60 56
1241 1051 1135.6341552734375 56 51 47
1242 1051 1136.3951416015625 60 55 51
1252 1051 1144.025390625 67 63 54
1280 1051 1160.1658935546875 60 55 51
1409 1051 1283.35693359375 135 143 164
1484 1051 1325.792236328125 151 157 183
1581 1051 1381.07568359375 159 174 193
606 1052 832.301025390625 86 83 76
785 1052 894.1101684570312 64 55 48
1125 1052 1065.1141357421875 60 51 44
1133 1052 1068.7249755859375 72 63 54
1141 1052 1074.5255126953125 64 55 46
1177 1052 1097.263916015625 66 59 49
1229 1052 1129.4552001953125 66 61 55
1245 1052 1139.327880859375 59 56 51
1490 1052 1328.8509521484375 145 151 177
606 1053 833.1734619140625 73 74 68
610 1053 832.6854248046875 68 68 60
829 1053 913.6148071289062 66 57 48
830 1053 912.4253540039062 63 54 47
1130 1053 1067.249267578125 65 58 48
1133 1053 1069.415771484375 76 67 58
1241 1053 1135.6341552734375 64 61 54
1294 1053 1171.011962890625 65 64 60
609 1054 833.072021484375 59 62 55
744 1054 877.8524780273438 62 58 46
832 1054 914.4183959960938 61 54 46
950 1054 971.5235595703125 61 54 44
1009 1054 1002.1616821289062 59 52 42
1110 1054 1057.1778564453125 66 58 47
1422 1054 1291.66015625 151 158 184
1430 1054 1296.6302490234375 149 155 179
1597 1054 1392.0057373046875 176 195 212
1599 1054 1393.707275390625 159 180 199
1690 1054 1448.3538818359375 167 188 205
1691 1054 1449.2156982421875 153 176 192
1692 1054 1450.07763671875 154 176 197
609 1055 833.946044921875 60 65 59
610 1055 834.43212890625 69 70 64
611 1055 834.9191284179688 79 79 71
840 1055 918.8013916015625 61 54 46
922 1055 957.4674682617188 63 52 46
955 1055 974.2381591796875 61 54 44
1117 1055 1062.88525390625 61 54 44
1174 1055 1095.7198486328125 57 53 44
1177 1055 1097.9366455078125 58 56 44
1220 1055 1124.822265625 60 55 51
1242 1055 1137.6932373046875 64 57 49
1275 1055 1159.895263671875 55 54 50
1430 1055 1297.189697265625 159 163 190
1435 1055 1299.6768798828125 153 161 184
1512 1055 1343.0655517578125 142 153 175
615 1056 835.305908203125 81 74 64
1032 1056 1014.5126953125 58 54 45
1051 1056 1024.140625 67 60 54
1093 1056 1046.51806640625 69 62 52
1110 1056 1057.1778564453125 73 66 56
1130 1056 1067.94189453125 68 61 53
1180 1056 1099.349365234375 65 58 52
1224 1056 1126.9871826171875 57 49 47
1237 1056 1134.54833984375 61 53 50
1238 1056 1135.3065185546875 65 58 52
1243 1056 1139.1031494140625 62 55 47
1256 1056 1147.4881591796875 60 55 51
1274 1056 1159.762451171875 58 55 50
1293 1056 1172.126708984375 73 72 67
1436 1056 1301.06494140625 142 147 176
1441 1056 1302.72412109375 136 147 167
1442 1056 1303.553955078125 150 156 180
1517 1056 1346.128173828125 157 163 189
1616 1056 1404.9769287109375 157 186 200
1066 1057 1031.7969970703125 64 55 48
1080 1057 1040.18310546875 70 63 55
1113 1057 1060.021240234375 68 61 53
1132 1057 1070.0771484375 58 51 45
1137 1057 1073.68994140625 55 51 42
1171 1057 1094.859375 59 52 46
1180 1057 1100.022705078125 59 54 48
1184 1057 1102.9822998046875 61 53 50
1187 1057 1105.206298828125 62 55 49
1191 1057 1106.6910400390625 70 63 55
1206 1057 1115.633056640625 59 54 48
1211 1057 1119.375732421875 59 54 48
1212 1057 1120.12548828125 67 60 52
1213 1057 1120.8756103515625 61 52 47
1223 1057 1126.890380859375 64 54 52
1225 1057 1128.39794921875 67 59 56
1226 1057 1129.15234375 66 58 56
1228 1057 1130.6622314453125 60 52 49
1237 1057 1135.2008056640625 73 65 62
1238 1057 1135.9586181640625 65 57 54
1239 1057 1136.716796875 64 57 51
1240 1057 1137.4752197265625 67 57 55
1242 1057 1138.993408203125 62 57 51
1345 1057 1251.645751953125 142 149 168
1525 1057 1350.8726806640625 141 151 176
1621 1057 1408.0574951171875 158 184 199
1717 1057 1467.129150390625 153 181 202
726 1058 871.5302734375 75 70 64
727 1058 872.060791015625 80 75 69
840 1058 919.4182739257812 67 60 50
1077 1058 1038.7940673828125 64 57 47
1078 1058 1039.494140625 64 60 49
1095 1058 1049.346435546875 64 57 49
1104 1058 1054.307861328125 60 51 44
1109 1058 1057.86572265625 68 61 53
1110 1058 1058.5787353515625 67 60 52
1115 1058 1060.720458984375 61 54 44
1125 1058 1065.7340087890625 60 53 45
1134 1058 1072.212646484375 62 55 49
1137 1058 1074.3802490234375 63 56 48
1181 1058 1101.4354248046875 69 64 58
1183 1058 1102.914306640625 68 63 57
1191 1058 1107.36083984375 73 66 58
