ply
format ascii 1.0
element vertex 1283
property float x
property float y
property float z
property float red
property float green
property float blue
end_header
1270 52 963.0186767578125 178 191 210
1342 52 1006.0 164 168 193
1343 52 1007.0 171 177 201
1344 52 1008.0 173 181 202
1400 52 1043.0042724609375 161 165 190
1404 52 1044.0042724609375 171 177 203
1405 52 1045.0042724609375 167 175 198
1406 52 1046.0042724609375 167 174 200
1407 52 1047.0042724609375 153 164 186
1446 52 1072.016845703125 167 175 198
1447 52 1073.0167236328125 174 185 205
1448 52 1074.0167236328125 170 181 203
1451 52 1074.0167236328125 179 185 211
1452 52 1075.0167236328125 183 191 212
1453 52 1076.0167236328125 186 197 217
1454 52 1077.0167236328125 171 179 202
1559 52 1146.07373046875 163 167 194
1560 52 1147.0736083984375 162 168 194
1630 52 1193.12109375 173 190 208
1631 52 1194.1209716796875 164 179 198
1751 52 1278.225341796875 151 165 194
1752 52 1279.22509765625 151 167 193
1753 52 1280.2249755859375 159 176 202
1812 52 1322.275634765625 152 165 197
1813 52 1323.2755126953125 151 165 194
1814 52 1324.2752685546875 153 167 196
1819 52 1327.274658203125 171 189 213
1820 52 1328.2744140625 171 192 211
1821 52 1329.2742919921875 165 186 205
1822 52 1330.2740478515625 161 181 205
1826 52 1332.2735595703125 158 184 207
1827 52 1333.2734375 156 183 204
818 53 740.4302978515625 40 63 71
823 53 740.4302978515625 55 81 94
836 53 746.4187622070312 125 139 150
896 53 769.98828125 125 139 152
897 53 770.9869995117188 124 136 150
898 53 771.9857788085938 123 132 149
939 53 788.7769165039062 135 148 164
971 53 803.6373291015625 140 151 169
972 53 804.6365356445312 145 158 175
975 53 805.6358032226562 147 163 179
976 53 806.635009765625 152 165 182
1012 53 823.4761962890625 144 160 176
1013 53 824.4755859375 140 156 172
1046 53 840.3719482421875 140 151 171
1047 53 841.3715209960938 141 152 172
1169 53 905.1082763671875 166 176 203
1170 53 906.108154296875 166 178 202
1171 53 907.1080322265625 163 175 199
1174 53 908.10791015625 176 189 208
1206 53 925.0654296875 177 188 210
1207 53 926.0653076171875 162 173 195
1208 53 927.0652465820312 157 164 190
1253 53 953.0256958007812 154 169 190
1264 53 959.0255737304688 179 192 211
1265 53 960.0255126953125 188 201 218
1266 53 961.0255126953125 174 190 206
1294 53 977.0081787109375 159 170 192
1295 53 978.0081787109375 152 163 185
1342 53 1006.00048828125 179 185 207
1343 53 1007.00048828125 183 191 212
1344 53 1008.00048828125 169 177 196
1398 53 1041.001953125 166 170 197
1399 53 1042.001953125 171 175 202
1400 53 1043.001953125 165 169 196
1403 53 1043.001953125 175 179 208
1404 53 1044.001953125 182 190 213
1405 53 1045.001953125 178 189 209
1406 53 1046.001953125 177 185 208
1407 53 1047.001953125 157 165 188
1440 53 1068.01171875 164 165 193
1441 53 1069.01171875 167 169 194
1442 53 1070.01171875 166 171 193
1443 53 1071.01171875 166 170 195
1446 53 1072.01171875 180 186 210
1447 53 1073.0115966796875 179 190 210
1448 53 1074.0115966796875 179 190 210
1451 53 1074.0115966796875 181 187 211
1452 53 1075.0115966796875 186 197 215
1453 53 1076.0115966796875 180 191 209
1507 53 1111.0364990234375 163 167 192
1558 53 1145.0628662109375 166 170 199
1559 53 1146.0628662109375 163 167 196
1565 53 1150.0626220703125 192 200 221
1624 53 1190.1075439453125 166 184 204
1625 53 1191.107421875 166 187 206
1751 53 1278.2069091796875 164 178 205
1752 53 1279.206787109375 171 187 212
1753 53 1280.2066650390625 173 191 215
1754 53 1281.2064208984375 170 190 214
1811 53 1321.255859375 151 164 196
1812 53 1322.255615234375 156 173 201
1813 53 1323.2554931640625 158 178 203
1814 53 1324.2552490234375 166 183 209
1819 53 1327.254638671875 170 188 210
1820 53 1328.2545166015625 173 194 213
1821 53 1329.2542724609375 162 183 202
1896 53 1382.3255615234375 138 155 181
1899 53 1385.3248291015625 141 159 181
1900 53 1386.3245849609375 147 163 188
864 54 757.221923828125 124 133 150
896 54 770.0396118164062 133 145 161
897 54 771.0382690429688 135 147 163
939 54 788.8218994140625 142 155 172
940 54 789.8208618164062 138 154 170
971 54 803.6777954101562 151 162 180
972 54 804.6769409179688 154 167 183
1008 54 821.5120239257812 147 160 177
1012 54 823.5108032226562 139 152 171
1040 54 836.4042358398438 143 159 175
1041 54 837.4037475585938 139 155 171
1042 54 838.4032592773438 136 147 167
1169 54 905.1243286132812 167 179 203
1170 54 906.1241455078125 172 184 206
1201 54 923.0780029296875 167 182 203
1202 54 924.0779418945312 166 179 198
1205 54 924.0779418945312 177 185 208
1206 54 925.0778198242188 177 188 208
1251 54 951.0336303710938 151 162 184
1252 54 952.0336303710938 151 161 186
1253 54 953.0335693359375 159 169 194
1264 54 959.0333862304688 174 185 203
1292 54 975.0128173828125 156 161 190
1293 54 976.0128173828125 170 177 203
1294 54 977.0128173828125 167 179 201
1295 54 978.0127563476562 160 172 194
1342 54 1006.0020141601562 180 188 207
1343 54 1007.0020141601562 176 188 204
1390 54 1037.00048828125 156 160 185
1393 54 1038.00048828125 161 167 193
1394 54 1039.00048828125 158 166 189
1395 54 1040.00048828125 155 166 188
1399 54 1042.00048828125 172 176 201
1400 54 1043.00048828125 175 181 205
1404 54 1044.00048828125 183 194 214
1440 54 1068.0074462890625 167 171 198
1441 54 1069.0074462890625 185 190 212
1442 54 1070.0074462890625 185 192 211
1443 54 1071.0074462890625 190 197 216
1446 54 1072.0074462890625 182 190 209
1447 54 1073.0074462890625 187 198 216
1448 54 1074.0074462890625 176 187 205
1502 54 1109.02880859375 165 169 196
1618 54 1186.0948486328125 170 185 206
1619 54 1187.0947265625 179 196 214
1620 54 1188.0947265625 172 191 208
1675 54 1226.132080078125 167 184 204
1744 54 1274.18994140625 160 174 200
1751 54 1278.1893310546875 176 192 215
1752 54 1279.189208984375 175 193 213
1753 54 1280.1890869140625 168 187 204
1811 54 1321.236572265625 160 180 205
1812 54 1322.236328125 166 191 213
1813 54 1323.2362060546875 158 185 206
1814 54 1324.2359619140625 154 179 201
1891 54 1380.3046875 135 149 176
1897 54 1383.303955078125 147 167 192
1898 54 1384.3038330078125 150 170 194
1899 54 1385.3035888671875 139 159 183
1900 54 1386.3033447265625 151 169 191
814 55 736.565673828125 43 72 78
815 55 737.5635375976562 52 81 87
816 55 738.5614624023438 50 79 85
864 55 757.2793579101562 138 147 164
865 55 758.2776489257812 139 148 165
935 55 787.8692626953125 141 154 171
961 55 798.7239990234375 135 146 164
1007 55 820.548583984375 134 147 164
1008 55 821.5479125976562 137 150 167
1009 55 822.5472412109375 143 154 172
1040 55 836.4359130859375 136 152 168
1041 55 837.4353637695312 138 151 170
1195 55 919.0919189453125 156 166 193
1197 55 921.0917358398438 167 178 200
1201 55 923.091552734375 182 194 216
1202 55 924.0914306640625 175 188 207
1248 55 951.0426025390625 156 167 189
1250 55 950.0426025390625 153 163 188
1251 55 951.0426025390625 158 168 193
1252 55 952.0425415039062 163 173 198
1253 55 953.04248046875 157 167 192
1288 55 974.0184936523438 159 166 192
1289 55 975.0184326171875 161 168 194
1292 55 975.0184326171875 153 159 185
1293 55 976.0184326171875 176 183 209
1294 55 977.0184326171875 179 192 211
1295 55 978.0184326171875 169 182 201
1389 55 1036.0 156 162 184
1393 55 1038.0 175 182 208
1394 55 1039.0 177 189 211
1395 55 1040.0 172 185 204
1440 55 1068.0042724609375 165 169 194
1441 55 1069.004150390625 190 196 218
1442 55 1070.004150390625 176 188 204
1560 55 1147.0435791015625 184 195 217
1613 55 1183.0828857421875 180 197 215
1614 55 1184.082763671875 172 187 206
1744 55 1274.173095703125 167 185 205
1753 55 1280.1722412109375 166 185 202
1812 55 1322.2177734375 163 188 210
1813 55 1323.2176513671875 159 186 207
1888 55 1377.28466796875 140 155 184
1889 55 1378.284423828125 146 160 187
1890 55 1379.2841796875 146 157 185
1891 55 1380.2840576171875 145 159 186
1896 55 1382.2835693359375 145 165 190
1897 55 1383.283447265625 151 173 197
1898 55 1384.283203125 160 182 205
1899 55 1385.282958984375 153 175 196
814 56 736.6315307617188 72 95 103
815 56 737.6293334960938 77 100 108
816 56 738.6270751953125 76 99 107
817 56 739.6248779296875 86 111 118
820 56 740.6226806640625 111 136 143
823 56 740.6226806640625 126 144 156
960 56 797.7681274414062 133 144 162
961 56 798.7671508789062 131 144 161
1195 56 919.1066284179688 153 165 189
1196 56 920.1065063476562 171 186 205
1197 56 921.1063842773438 172 187 206
1243 56 948.052734375 166 173 199
1246 56 949.0526733398438 159 169 194
1247 56 950.0526123046875 159 171 193
1248 56 951.0525512695312 163 175 197
1250 56 950.0526123046875 164 176 198
1251 56 951.0525512695312 167 179 201
1252 56 952.052490234375 174 190 206
1253 56 953.052490234375 157 173 189
1281 56 969.0252685546875 155 163 186
1282 56 970.0252685546875 155 161 187
1283 56 971.0252075195312 156 162 188
1284 56 972.0252075195312 158 166 189
1288 56 974.025146484375 164 171 197
1289 56 975.025146484375 173 184 206
1290 56 976.0250854492188 176 187 207
1293 56 976.0250854492188 182 190 213
1294 56 977.0250854492188 179 192 211
1324 56 995.008056640625 164 170 194
1325 56 996.008056640625 155 161 185
1387 56 1034.0 156 160 187
1388 56 1035.0 164 170 194
1389 56 1036.0 181 187 209
1390 56 1037.0 168 174 196
1393 56 1038.0 166 178 200
1394 56 1039.0 178 195 211
1440 56 1068.0018310546875 173 179 203
1441 56 1069.0018310546875 191 199 220
1542 56 1134.0357666015625 163 169 191
1543 56 1135.03564453125 162 168 190
1544 56 1136.03564453125 157 163 189
1744 56 1274.156982421875 165 188 204
1791 56 1306.2025146484375 148 163 192
1792 56 1307.202392578125 158 174 200
1793 56 1308.2021484375 155 172 198
1794 56 1309.2020263671875 156 176 200
1795 56 1310.201904296875 152 174 197
1881 56 1372.265625 151 162 192
1882 56 1373.2655029296875 158 174 200
1883 56 1374.2652587890625 147 163 188
1884 56 1375.2650146484375 141 157 182
1889 56 1378.2645263671875 151 168 194
1890 56 1379.2642822265625 159 175 200
1891 56 1380.26416015625 160 178 202
1892 56 1381.263916015625 154 174 198
1897 56 1383.2635498046875 149 177 198
1898 56 1384.2633056640625 152 181 199
816 57 738.694091796875 99 117 129
820 57 740.6895141601562 126 144 156
855 57 753.4055786132812 121 135 148
885 57 766.20751953125 129 142 158
926 57 782.971923828125 128 141 158
927 57 783.9706420898438 128 141 158
953 57 795.814697265625 125 138 154
957 57 797.8126220703125 125 136 154
960 57 797.8126220703125 138 151 167
961 57 798.8116455078125 149 165 180
1031 57 832.5052490234375 138 149 171
1032 57 833.504638671875 138 151 170
1153 57 896.1807861328125 158 169 191
1154 57 897.1806030273438 158 169 191
1196 57 920.1222534179688 172 187 206
1241 57 946.06396484375 154 161 187
1242 57 947.0639038085938 165 172 198
1243 57 948.0638427734375 157 164 190
1245 57 948.0638427734375 154 164 189
1246 57 949.063720703125 175 187 209
1247 57 950.0636596679688 171 183 205
1248 57 951.0635986328125 165 177 199
1250 57 950.0636596679688 169 181 203
1251 57 951.0635986328125 176 189 208
1252 57 952.0635375976562 179 195 211
1281 57 969.0330200195312 149 159 184
1282 57 970.032958984375 147 154 182
1283 57 971.032958984375 166 173 199
1284 57 972.0328979492188 176 187 209
1288 57 974.0328369140625 175 183 206
1289 57 975.0328369140625 177 188 208
1290 57 976.0327758789062 171 184 203
1318 57 992.0125732421875 168 174 198
1319 57 993.0125732421875 168 174 198
1322 57 993.0125732421875 167 171 198
1323 57 994.0125732421875 182 188 212
1324 57 995.0125732421875 176 182 204
1325 57 996.0125732421875 168 174 198
1387 57 1034.00048828125 168 172 199
1388 57 1035.00048828125 176 184 205
1389 57 1036.00048828125 184 192 213
1390 57 1037.00048828125 169 177 198
1421 57 1056.00048828125 158 169 189
1537 57 1132.0283203125 156 164 185
1541 57 1133.0281982421875 167 171 198
1726 57 1260.1431884765625 163 170 199
1727 57 1261.1431884765625 169 179 206
1728 57 1262.14306640625 158 172 198
1729 57 1263.1429443359375 170 184 210
1791 57 1306.185302734375 160 177 203
1792 57 1307.1851806640625 161 179 203
1793 57 1308.18505859375 167 189 212
1794 57 1309.184814453125 151 176 196
1881 57 1372.246337890625 146 160 187
1882 57 1373.24609375 146 164 188
1883 57 1374.2459716796875 156 177 198
1884 57 1375.245849609375 153 171 195
1885 57 1376.24560546875 149 167 191
1889 57 1378.2452392578125 149 169 193
1890 57 1379.2451171875 155 176 197
1891 57 1380.244873046875 162 184 205
816 58 738.762451171875 120 136 149
817 58 739.7600708007812 125 141 154
851 58 752.46923828125 120 133 149
855 58 753.4673461914062 127 141 154
885 58 766.2643432617188 140 156 169
902 58 774.195068359375 146 158 174
922 58 782.023681640625 132 145 161
950 58 794.8616333007812 135 148 164
953 58 795.8605346679688 131 142 160
954 58 796.8594360351562 140 152 168
957 58 797.8583984375 144 160 175
1030 58 831.5413208007812 138 149 171
1031 58 832.5407104492188 144 155 177
1032 58 833.5400390625 149 162 181
1152 58 895.20166015625 166 179 198
1153 58 896.201416015625 177 190 209
1154 58 897.2012329101562 169 182 201
1236 58 943.0763549804688 155 165 190
1237 58 944.0762939453125 159 169 194
1238 58 945.076171875 156 166 191
1241 58 946.0761108398438 162 169 197
1242 58 947.0760498046875 172 182 207
1243 58 948.075927734375 170 181 203
1245 58 948.075927734375 161 172 194
1246 58 949.0758666992188 184 197 214
1247 58 950.0758056640625 178 194 210
1275 58 966.0419311523438 150 162 184
1276 58 967.0418701171875 157 169 191
1282 58 970.041748046875 136 148 172
1283 58 971.0416870117188 166 178 200
1317 58 991.0181884765625 165 169 198
1318 58 992.0181274414062 172 180 203
1319 58 993.0181274414062 169 177 200
1322 58 993.0181274414062 178 186 207
1323 58 994.0181274414062 189 200 218
1324 58 995.01806640625 180 192 208
1325 58 996.01806640625 176 184 203
1387 58 1034.001953125 171 177 201
1388 58 1035.001953125 183 191 210
1419 58 1054.0 167 171 198
1420 58 1055.0 156 164 187
1421 58 1056.0 168 176 199
1721 58 1258.1287841796875 154 164 191
1726 58 1260.1285400390625 175 190 213
1727 58 1261.12841796875 176 193 213
1728 58 1262.12841796875 170 188 210
1729 58 1263.1282958984375 158 176 198
1730 58 1264.128173828125 155 173 195
1785 58 1303.169189453125 154 174 199
1786 58 1304.1690673828125 152 177 199
1787 58 1305.1689453125 161 188 207
1791 58 1306.1688232421875 154 176 197
1792 58 1307.168701171875 162 188 205
1793 58 1308.1685791015625 166 195 211
1794 58 1309.16845703125 166 195 211
1881 58 1372.227783203125 145 162 188
1882 58 1373.2275390625 153 178 198
1883 58 1374.2274169921875 158 184 201
1884 58 1375.227294921875 158 183 203
1889 58 1378.226806640625 154 180 197
802 59 734.8421630859375 42 75 84
815 59 737.8346557617188 127 141 154
816 59 738.8322143554688 122 134 148
875 59 761.3310546875 120 134 147
918 59 780.0781860351562 127 139 155
919 59 781.0768432617188 127 139 155
922 59 782.075439453125 140 153 169
949 59 793.9099731445312 130 143 160
950 59 794.9088134765625 131 142 160
954 59 796.906494140625 149 161 177
993 59 813.7106323242188 138 151 168
994 59 814.7097778320312 132 145 162
1152 59 895.2234497070312 172 185 204
1236 59 943.089599609375 165 175 200
1237 59 944.0895385742188 167 177 202
1238 59 945.0894165039062 164 174 199
1241 59 946.0892944335938 170 180 207
1242 59 947.0892333984375 182 194 216
1243 59 948.089111328125 175 187 209
1245 59 948.089111328125 166 177 199
1246 59 949.0890502929688 181 194 211
1275 59 966.0517578125 163 175 197
1276 59 967.0516967773438 161 173 195
1282 59 970.0515747070312 156 168 192
1283 59 971.051513671875 171 183 205
1284 59 972.0514526367188 176 189 208
1312 59 988.0247802734375 156 162 188
1313 59 989.0247802734375 161 168 194
1314 59 990.0247192382812 170 178 201
1317 59 991.0247192382812 165 170 199
1318 59 992.0247192382812 175 186 208
1319 59 993.024658203125 181 192 212
1322 59 993.024658203125 184 195 213
1323 59 994.024658203125 190 202 218
1374 59 1026.00439453125 166 174 195
1375 59 1027.00439453125 161 169 192
1414 59 1052.0 163 169 191
1419 59 1054.0 164 170 196
1420 59 1055.0 174 182 205
1421 59 1056.0 171 182 204
1481 59 1095.004150390625 164 169 191
1531 59 1128.0159912109375 156 164 187
1596 59 1171.042724609375 178 197 212
1651 59 1209.0699462890625 166 179 196
1718 59 1255.1151123046875 154 163 192
1719 59 1256.114990234375 173 185 211
1720 59 1257.114990234375 176 188 212
1721 59 1258.1148681640625 179 191 215
1726 59 1260.1146240234375 173 190 210
1727 59 1261.1146240234375 175 196 213
1728 59 1262.114501953125 176 197 214
1729 59 1263.1143798828125 169 190 209
1730 59 1264.1142578125 159 177 199
1778 59 1298.154052734375 152 166 193
1779 59 1299.1539306640625 163 177 204
1785 59 1303.1534423828125 165 185 210
1786 59 1304.1533203125 171 198 217
1787 59 1305.1531982421875 165 194 210
1794 59 1309.15283203125 148 175 192
1795 59 1310.1527099609375 154 179 199
798 60 732.9188232421875 48 73 80
801 60 733.9161987304688 58 87 95
844 60 749.6032104492188 109 121 137
848 60 751.5989379882812 122 135 151
875 60 761.3908081054688 132 145 161
918 60 780.1314086914062 133 141 160
919 60 781.1299438476562 145 156 174
949 60 793.9584350585938 145 157 173
950 60 794.9572143554688 154 167 183
1141 60 889.2479858398438 147 158 180
1142 60 890.2477416992188 141 151 176
1178 60 909.17822265625 170 182 204
1179 60 910.177978515625 172 184 206
1180 60 911.1777954101562 162 174 196
1236 60 943.1039428710938 164 175 197
1237 60 944.1038208007812 176 189 208
1238 60 945.1036987304688 174 187 206
1265 60 960.06298828125 158 170 194
1266 60 961.0629272460938 153 165 187
1275 60 966.0626220703125 177 192 211
1276 60 967.0625610351562 172 185 204
1312 60 988.0324096679688 166 173 199
1313 60 989.0323486328125 182 193 215
1314 60 990.0323486328125 178 191 210
1317 60 991.0322875976562 177 184 210
1318 60 992.0322875976562 179 192 211
1369 60 1024.0078125 161 167 189
1372 60 1024.0078125 162 168 192
1373 60 1025.0078125 174 182 203
1374 60 1026.0078125 185 196 214
1375 60 1027.0078125 168 179 199
1408 60 1048.00048828125 172 176 201
1419 60 1054.00048828125 177 185 208
1420 60 1055.00048828125 187 200 217
1421 60 1056.00048828125 180 196 211
1590 60 1168.03466796875 185 203 217
1594 60 1169.03466796875 170 185 206
1714 60 1253.1021728515625 157 173 199
1718 60 1255.1019287109375 177 192 215
1719 60 1256.1019287109375 171 188 208
1720 60 1257.101806640625 176 195 212
1721 60 1258.1016845703125 183 202 219
1725 60 1259.1016845703125 173 190 210
1726 60 1260.1015625 177 199 213
1772 60 1294.1395263671875 163 177 204
1773 60 1295.139404296875 162 180 204
1778 60 1298.1390380859375 165 186 207
1779 60 1299.138916015625 175 196 217
1780 60 1300.1387939453125 180 201 220
1785 60 1303.1385498046875 167 187 211
792 61 730.0 39 61 75
796 61 730.9972534179688 52 79 86
797 61 731.9945068359375 54 81 88
801 61 733.9890747070312 83 107 117
804 61 733.9890747070312 105 122 138
843 61 748.6715087890625 121 133 149
844 61 749.6692504882812 117 125 144
868 61 759.4557495117188 130 147 157
876 61 762.4500122070312 143 156 172
918 61 780.1858520507812 149 157 176
940 61 790.0133056640625 131 142 160
984 61 809.8005981445312 140 153 170
985 61 810.7996215820312 136 149 166
1016 61 824.6605224609375 141 154 173
1017 61 825.6597290039062 148 161 180
1141 61 889.2721557617188 167 178 200
1142 61 890.2718505859375 148 160 184
1171 61 907.198974609375 150 162 184
1175 61 909.1985473632812 177 189 213
1176 61 910.1983032226562 158 170 194
1178 61 909.1985473632812 171 183 205
1179 61 910.1983032226562 171 184 203
1180 61 911.1981201171875 175 187 209
1224 61 936.1201782226562 153 161 182
1225 61 937.1200561523438 155 163 184
1237 61 944.119140625 183 196 215
1264 61 959.0750732421875 155 167 191
1265 61 960.0750122070312 155 167 191
1266 61 961.0748901367188 156 168 192
1271 61 964.07470703125 177 189 211
1312 61 988.041015625 165 176 198
1313 61 989.0409545898438 184 195 215
1314 61 990.0408935546875 176 189 206
1367 61 1022.01220703125 161 167 191
1368 61 1023.01220703125 171 179 202
1369 61 1024.01220703125 178 186 207
1372 61 1024.01220703125 173 179 203
1373 61 1025.01220703125 192 200 221
1374 61 1026.01220703125 182 193 211
1407 61 1047.001953125 161 165 190
1408 61 1048.001953125 172 176 201
1419 61 1054.001953125 171 182 204
1420 61 1055.001953125 189 202 218
1588 61 1166.0274658203125 175 190 209
1589 61 1167.0274658203125 169 185 201
1712 61 1251.0899658203125 166 183 209
1713 61 1252.08984375 171 191 215
1714 61 1253.0897216796875 175 197 218
1718 61 1255.089599609375 174 192 214
1719 61 1256.089599609375 173 191 211
1720 61 1257.0894775390625 172 191 206
1721 61 1258.0894775390625 172 191 206
1771 61 1293.125244140625 160 169 200
1772 61 1294.125244140625 166 182 207
1773 61 1295.1251220703125 165 185 209
1778 61 1298.124755859375 162 184 205
1779 61 1299.124755859375 173 196 214
1780 61 1300.1246337890625 169 192 208
1855 61 1353.1788330078125 155 166 196
1856 61 1354.1787109375 148 159 187
793 62 731.0718383789062 57 76 90
796 62 731.0718383789062 72 95 103
797 62 732.0689697265625 87 107 114
804 62 734.0633544921875 119 135 150
836 62 746.7435913085938 129 142 158
940 62 790.0645751953125 139 150 168
984 62 809.8456420898438 133 144 164
985 62 810.8446044921875 134 147 166
1013 62 824.701171875 139 150 172
1016 62 824.701171875 145 156 178
1017 62 825.7003173828125 152 163 183
1136 62 887.2981567382812 166 181 200
1137 62 888.2977905273438 154 169 188
1140 62 888.2977905273438 172 183 205
1141 62 889.2974853515625 177 188 210
1169 62 905.220947265625 154 164 189
1171 62 907.220458984375 163 173 198
1174 62 908.22021484375 174 189 210
1175 62 909.219970703125 178 193 212
1176 62 910.2197265625 166 178 200
1178 62 909.219970703125 162 174 196
1222 62 934.1370239257812 158 166 189
1223 62 935.1369018554688 159 167 190
1224 62 936.13671875 168 176 199
1225 62 937.1365966796875 163 171 194
1264 62 959.088134765625 158 173 194
1265 62 960.0880126953125 170 187 207
1266 62 961.0879516601562 165 182 202
1359 62 1018.0177001953125 162 168 190
1362 62 1019.0176391601562 167 168 196
1363 62 1020.0176391601562 171 173 198
1364 62 1021.0176391601562 168 174 196
1367 62 1022.0176391601562 170 181 203
1368 62 1023.017578125 180 193 210
1369 62 1024.017578125 176 192 207
1404 62 1044.0042724609375 168 174 198
1405 62 1045.0042724609375 175 181 205
1406 62 1046.0042724609375 169 173 198
1407 62 1047.0042724609375 163 167 192
1582 62 1162.0211181640625 178 189 209
1583 62 1163.0211181640625 180 191 209
1584 62 1164.02099609375 176 189 206
1712 62 1251.078369140625 162 188 205
1713 62 1252.0782470703125 172 200 214
1714 62 1253.0782470703125 172 198 213
1770 62 1292.11181640625 158 169 197
1771 62 1293.1116943359375 161 175 202
1772 62 1294.1116943359375 172 190 212
1773 62 1295.111572265625 166 187 208
1778 62 1298.111328125 167 188 209
1854 62 1352.1630859375 145 159 188
1855 62 1353.1629638671875 154 168 197
1856 62 1354.162841796875 153 167 194
786 63 728.1565551757812 45 63 77
787 63 729.1536254882812 43 60 76
788 63 730.1506958007812 48 67 82
789 63 729.1536254882812 56 75 90
790 63 730.1506958007812 61 80 95
795 63 730.1506958007812 92 110 122
797 63 732.144775390625 102 119 129
836 63 746.8125610351562 127 140 156
865 63 758.584228515625 138 147 164
940 63 790.1170654296875 146 159 176
979 63 807.8941650390625 140 153 170
1012 63 823.743896484375 147 158 180
1013 63 824.7429809570312 138 149 171
1131 63 884.3257446289062 161 171 196
1132 63 885.3253784179688 163 174 196
1133 63 886.3250122070312 156 168 190
1135 63 886.3250122070312 165 180 201
1136 63 887.3246459960938 169 184 203
1137 63 888.3242797851562 172 187 206
1169 63 905.2435913085938 151 161 186
1170 63 906.2433471679688 177 187 212
1171 63 907.2431030273438 173 183 208
1174 63 908.2427978515625 171 186 205
1218 63 933.1548461914062 156 167 189
1219 63 934.1547241210938 158 169 191
1223 63 935.154541015625 169 180 202
1224 63 936.1543579101562 181 189 212
1225 63 937.1541748046875 168 176 199
1264 63 959.1021728515625 164 179 200
1265 63 960.10205078125 172 189 209
1266 63 961.1019897460938 168 185 205
1295 63 978.0618286132812 160 168 191
1357 63 1016.0241088867188 165 169 196
1358 63 1017.0241088867188 159 165 189
1359 63 1018.0240478515625 170 176 200
1362 63 1019.0240478515625 180 181 209
1363 63 1020.0240478515625 181 185 210
1364 63 1021.0239868164062 182 188 210
1367 63 1022.0239868164062 173 184 206
1368 63 1023.02392578125 174 190 205
1399 63 1042.0076904296875 158 164 188
1400 63 1043.0076904296875 168 174 198
1404 63 1044.0076904296875 180 186 210
1405 63 1045.0076904296875 185 193 214
1406 63 1046.0076904296875 184 190 214
1407 63 1047.0076904296875 163 169 193
1575 63 1157.0155029296875 161 169 192
1577 63 1159.0155029296875 186 197 217
1578 63 1160.0155029296875 186 199 216
1712 63 1251.0675048828125 165 188 206
1713 63 1252.0675048828125 164 190 205
1771 63 1293.0989990234375 168 182 208
1772 63 1294.098876953125 168 184 207
1773 63 1295.098876953125 165 183 205
1846 63 1347.1484375 150 165 194
1847 63 1348.1483154296875 152 167 196
1854 63 1352.14794921875 161 177 203
1855 63 1353.1478271484375 160 177 203
1856 63 1354.147705078125 162 179 205
787 64 729.2310791015625 60 78 92
796 64 731.2249755859375 116 130 143
797 64 732.2219848632812 120 134 147
865 64 758.6494750976562 147 159 175
901 64 773.3692626953125 124 137 153
905 64 774.3674926757812 135 146 164
906 64 775.36572265625 138 150 166
1008 64 821.7888793945312 136 147 167
1009 64 822.7879638671875 145 156 176
1126 64 881.3546142578125 157 165 188
1127 64 882.354248046875 167 178 200
1128 64 883.3538208007812 161 173 195
1131 64 884.3534545898438 158 170 192
1132 64 885.35302734375 170 183 202
1169 64 905.267333984375 164 175 197
1214 64 931.1740112304688 159 170 192
1218 64 933.1736450195312 166 174 197
1219 64 934.1734619140625 173 181 204
1223 64 935.1732177734375 174 186 208
1224 64 936.1730346679688 178 189 209
1225 64 937.1728515625 172 183 203
1252 64 952.1181640625 158 168 193
1293 64 976.0737915039062 161 167 193
1294 64 977.0736694335938 165 173 196
1295 64 978.0736083984375 169 177 200
1355 64 1014.0315551757812 163 169 193
1356 64 1015.0315551757812 161 165 192
1357 64 1016.031494140625 166 170 195
1358 64 1017.031494140625 181 187 209
1359 64 1018.0314331054688 179 187 208
1362 64 1019.0314331054688 183 191 212
1394 64 1039.0120849609375 163 165 190
1395 64 1040.011962890625 164 166 191
1399 64 1042.011962890625 173 179 203
1400 64 1043.011962890625 176 184 205
1404 64 1044.011962890625 186 197 217
1405 64 1045.011962890625 185 198 215
1406 64 1046.011962890625 177 188 208
1507 64 1111.00048828125 162 163 193
1508 64 1112.00048828125 164 168 193
1575 64 1157.0108642578125 163 169 195
1577 64 1159.0107421875 175 183 206
1751 64 1278.0880126953125 161 179 203
1752 64 1279.0880126953125 157 177 201
1753 64 1280.087890625 158 179 200
1754 64 1281.0877685546875 159 181 202
1847 64 1348.1339111328125 150 168 192
1848 64 1349.1337890625 153 173 197
1854 64 1352.133544921875 162 182 206
1856 64 1354.13330078125 165 185 209
1857 64 1355.1331787109375 171 189 213
780 65 725.3226928710938 51 68 75
782 65 727.3162841796875 45 73 77
855 65 753.7274169921875 123 139 152
897 65 771.43310546875 131 143 159
898 65 772.4312133789062 124 136 152
905 65 774.4275512695312 142 153 171
926 65 783.2368774414062 130 146 161
927 65 784.2352905273438 137 153 168
971 65 803.9956665039062 135 148 164
972 65 804.994384765625 135 148 165
1008 65 821.8333129882812 152 160 181
1009 65 822.832275390625 155 166 186
1126 65 881.383544921875 154 162 185
1127 65 882.3831176757812 167 178 198
1128 65 883.3826904296875 167 180 199
1129 65 884.3822631835938 158 171 190
1214 65 931.19384765625 173 184 206
1218 65 933.1934204101562 169 180 202
1251 65 951.1345825195312 170 180 205
1252 65 952.1344604492188 171 181 206
1253 65 953.13427734375 157 168 190
1289 65 975.086669921875 161 168 194
1290 65 976.0865478515625 160 168 191
1293 65 976.0865478515625 173 180 206
1294 65 977.0864868164062 183 191 214
1295 65 978.08642578125 177 188 208
1356 65 1015.0399169921875 161 167 193
1357 65 1016.0398559570312 183 189 213
1358 65 1017.039794921875 193 202 219
1359 65 1018.039794921875 188 197 214
1393 65 1038.017333984375 175 176 204
1394 65 1039.017333984375 182 184 209
1395 65 1040.017333984375 176 178 203
1398 65 1041.017333984375 172 176 201
1399 65 1042.017333984375 182 188 210
1400 65 1043.0172119140625 178 189 209
1401 65 1044.0172119140625 171 182 202
1507 65 1111.0 165 166 196
1508 65 1112.0 175 176 204
1688 65 1234.049072265625 166 176 203
1689 65 1235.0489501953125 164 176 202
1751 65 1278.07666015625 156 176 200
1752 65 1279.07666015625 157 179 200
1753 65 1280.0765380859375 162 188 205
1754 65 1281.0765380859375 159 185 202
1834 65 1337.1212158203125 152 169 195
1836 65 1339.1209716796875 137 157 184
1837 65 1340.120849609375 141 161 188
1838 65 1341.120849609375 145 162 190
1839 65 1342.1207275390625 144 161 187
1847 65 1348.1201171875 157 177 201
1848 65 1349.1201171875 164 186 207
1896 65 1382.1595458984375 141 161 185
1898 65 1384.1593017578125 144 162 186
1900 65 1386.1590576171875 136 152 178
1901 65 1387.158935546875 145 161 187
778 66 725.4033203125 44 66 77
779 66 726.4000244140625 53 73 82
824 66 742.0410766601562 121 134 150
897 66 771.49462890625 130 138 157
898 66 772.4927368164062 132 140 159
927 66 784.2920532226562 133 146 162
1127 66 882.4131469726562 166 179 196
1206 66 925.2161865234375 156 162 188
1207 66 926.2159423828125 158 164 190
1208 66 927.2156982421875 152 159 185
1214 66 931.2147827148438 174 187 206
1218 66 933.21435546875 169 181 203
1219 66 934.214111328125 175 187 209
1246 66 949.1522827148438 167 179 201
1247 66 950.152099609375 171 183 205
1248 66 951.1519165039062 163 174 196
1250 66 950.152099609375 161 172 194
1251 66 951.1519165039062 180 191 213
1252 66 952.1517944335938 182 193 213
1253 66 953.151611328125 167 180 199
1282 66 970.1010131835938 155 165 190
1283 66 971.1009521484375 165 173 196
1284 66 972.100830078125 166 174 197
1285 66 973.1007080078125 161 169 190
1288 66 974.1005859375 162 169 195
1289 66 975.1005249023438 177 188 210
1290 66 976.1004028320312 184 195 215
1293 66 976.1004028320312 181 189 212
1294 66 977.1002807617188 186 199 216
1295 66 978.1002197265625 178 191 208
1344 66 1008.0496215820312 156 161 183
1388 66 1035.023681640625 169 173 198
1389 66 1036.023681640625 176 180 205
1390 66 1037.023681640625 169 175 199
1393 66 1038.0235595703125 174 180 204
1394 66 1039.0235595703125 180 186 208
1395 66 1040.0235595703125 193 199 221
1398 66 1041.0235595703125 176 182 206
1400 66 1043.0234375 179 190 210
1497 66 1106.0 162 166 191
1681 66 1230.0406494140625 159 173 199
1683 66 1232.04052734375 160 171 199
1687 66 1233.04052734375 158 170 196
1688 66 1234.04052734375 166 181 204
1689 66 1235.04052734375 181 197 220
1690 66 1236.0404052734375 164 182 204
1751 66 1278.066162109375 156 178 199
1752 66 1279.0660400390625 159 185 202
1753 66 1280.0660400390625 165 193 207
1754 66 1281.06591796875 165 193 207
1829 66 1335.1082763671875 146 157 189
1834 66 1337.1080322265625 144 164 189
1836 66 1339.10791015625 151 173 197
1838 66 1341.1077880859375 147 167 192
1891 66 1380.1448974609375 141 157 183
1896 66 1382.1446533203125 148 164 190
1897 66 1383.1446533203125 145 161 187
1898 66 1384.14453125 146 162 188
1899 66 1385.1444091796875 148 164 190
1900 66 1386.144287109375 147 167 192
1901 66 1387.1441650390625 153 173 198
786 67 728.47509765625 120 137 147
848 67 751.870361328125 126 140 153
856 67 754.8629150390625 138 154 167
897 67 771.5574951171875 132 140 159
922 67 782.353515625 139 151 167
926 67 783.3517456054688 145 158 175
927 67 784.3500366210938 149 162 178
928 67 785.3483276367188 146 159 175
1115 67 875.4478759765625 154 164 189
1116 67 876.4473876953125 157 168 190
1152 67 895.34912109375 150 162 184
1153 67 896.3486938476562 174 186 208
1154 67 897.3483276367188 166 177 199
1202 67 924.2385864257812 160 172 194
1205 67 924.2385864257812 172 179 205
1206 67 925.2383422851562 177 184 210
1207 67 926.2380981445312 160 168 191
1208 67 927.2378540039062 152 159 185
1214 67 931.23681640625 173 186 205
1241 67 946.1712036132812 158 165 191
1242 67 947.1710815429688 167 174 200
1243 67 948.1708984375 161 171 196
1246 67 949.1707153320312 170 182 204
1247 67 950.1705322265625 184 196 218
1248 67 951.1703491210938 172 183 205
1250 67 950.1705322265625 177 188 210
1251 67 951.1703491210938 187 198 218
1282 67 970.115966796875 157 164 190
1283 67 971.1158447265625 156 164 187
1284 67 972.11572265625 168 176 197
1285 67 973.1156005859375 181 189 210
1288 67 974.115478515625 173 181 204
1289 67 975.1153564453125 189 200 222
1290 67 976.115234375 176 187 207
1293 67 976.115234375 175 183 206
1342 67 1006.0601196289062 163 169 195
1343 67 1007.06005859375 170 176 200
1344 67 1008.0599975585938 174 178 203
1388 67 1035.0308837890625 178 182 207
1389 67 1036.0308837890625 189 195 217
1390 67 1037.0308837890625 180 186 210
1393 67 1038.0308837890625 180 188 209
1394 67 1039.03076171875 187 195 214
1395 67 1040.03076171875 189 197 216
1496 67 1105.00048828125 170 171 199
1509 67 1113.00048828125 187 193 215
1560 67 1147.001708984375 178 194 209
1561 67 1148.001708984375 173 189 204
1676 67 1227.032958984375 149 159 186
1681 67 1230.032958984375 160 176 202
1682 67 1231.032958984375 164 182 206
1683 67 1232.0328369140625 164 182 204
1687 67 1233.0328369140625 172 187 210
1688 67 1234.0328369140625 180 197 217
1689 67 1235.0328369140625 182 200 220
1751 67 1278.056396484375 166 188 209
1828 67 1334.095947265625 150 163 195
1839 67 1342.0953369140625 155 177 201
1890 67 1379.130859375 143 160 186
1891 67 1380.1307373046875 147 164 190
1892 67 1381.1307373046875 141 158 184
1896 67 1382.130615234375 147 163 189
1897 67 1383.1304931640625 145 161 187
1898 67 1384.13037109375 156 172 198
1899 67 1385.13037109375 153 170 196
771 68 723.5758666992188 46 62 75
772 68 724.572265625 53 69 82
778 68 725.5687255859375 91 109 123
786 68 728.5581665039062 122 136 149
820 68 741.1950073242188 132 146 159
844 68 749.9466552734375 122 135 151
918 68 780.4165649414062 137 148 166
919 68 781.4147338867188 137 149 165
923 68 783.4111328125 150 163 179
961 68 799.1576538085938 132 145 162
962 68 800.15625 132 145 161
994 68 814.9822387695312 135 146 166
995 68 815.9810180664062 146 157 175
1111 68 874.4810180664062 156 167 189
1114 68 874.4810180664062 161 172 194
1115 68 875.48046875 169 180 202
1116 68 876.4799194335938 168 179 199
1152 68 895.3775634765625 161 174 193
1153 68 896.3771362304688 178 191 210
1198 68 922.262451171875 157 169 191
1201 68 923.2621459960938 167 177 202
1202 68 924.2618408203125 165 176 198
1205 68 924.2618408203125 180 191 213
1206 68 925.2615966796875 179 192 211
1207 68 926.2612915039062 173 184 204
1236 68 943.19140625 158 165 191
1237 68 944.191162109375 158 169 191
1238 68 945.1909790039062 160 171 193
1241 68 946.1907958984375 163 174 196
1242 68 947.1906127929688 174 185 207
1243 68 948.1903686523438 177 188 210
1246 68 949.190185546875 176 189 208
1247 68 950.1900024414062 187 200 219
1276 68 967.1323852539062 157 168 190
1282 68 970.1319580078125 156 166 191
1283 68 971.1318359375 159 170 192
1284 68 972.1316528320312 183 194 212
1285 68 973.1315307617188 187 198 216
1288 68 974.1314086914062 169 177 198
1342 68 1006.0715942382812 165 173 196
1343 68 1007.0714721679688 174 185 205
1344 68 1008.0714111328125 178 186 207
1388 68 1035.0391845703125 182 188 210
1389 68 1036.0390625 191 199 218
1498 68 1107.0018310546875 187 193 215
1673 68 1224.026123046875 163 174 202
1674 68 1225.026123046875 163 174 202
1675 68 1226.026123046875 159 171 197
1676 68 1227.026123046875 169 183 209
1680 68 1229.0260009765625 152 166 193
1681 68 1230.0260009765625 165 185 209
1682 68 1231.0260009765625 167 195 209
1683 68 1232.0260009765625 164 194 205
1731 68 1265.0478515625 157 168 196
1821 68 1329.0845947265625 150 170 195
1835 68 1338.0841064453125 150 178 199
1836 68 1339.083984375 148 176 197
1837 68 1340.083984375 152 179 200
1882 68 1373.1180419921875 146 157 189
1883 68 1374.117919921875 149 160 192
1884 68 1375.1177978515625 146 160 187
1885 68 1376.11767578125 153 167 194
1890 68 1379.117431640625 148 168 193
1891 68 1380.117431640625 146 171 193
1892 68 1381.1173095703125 155 180 202
1896 68 1382.1171875 153 170 196
1897 68 1383.1171875 159 177 201
1898 68 1384.1170654296875 163 183 207
1899 68 1385.116943359375 155 177 198
771 69 723.6608276367188 54 70 83
772 69 724.6571655273438 69 87 99
777 69 724.6571655273438 98 116 128
816 69 739.2786865234375 115 128 144
817 69 740.275634765625 120 132 148
844 69 750.0193481445312 121 134 150
885 69 766.6981201171875 131 138 157
919 69 781.4755249023438 139 152 169
958 69 799.2120971679688 129 142 159
962 69 800.2105712890625 144 157 174
994 69 815.0319213867188 145 156 174
1110 69 873.5153198242188 157 167 192
1111 69 874.5147094726562 166 177 199
1112 69 875.51416015625 160 172 194
1114 69 874.5147094726562 167 178 200
1196 69 920.2874755859375 157 167 192
1197 69 921.2871704101562 164 175 197
1198 69 922.2868041992188 158 170 192
1201 69 923.2864990234375 171 181 206
1202 69 924.2861938476562 171 182 204
1236 69 943.2120361328125 152 159 185
1237 69 944.2118530273438 175 182 208
1238 69 945.2116088867188 176 187 209
1239 69 946.2113647460938 166 177 199
1241 69 946.2113647460938 168 179 201
1242 69 947.211181640625 181 192 214
1243 69 948.2109375 173 186 205
1275 69 966.1495971679688 171 183 205
1276 69 967.1494140625 166 177 199
1282 69 970.1489868164062 160 170 195
1283 69 971.1488037109375 164 175 197
1284 69 972.148681640625 181 192 212
1343 69 1007.0839233398438 177 188 206
1373 69 1025.048828125 172 176 201
1374 69 1026.0487060546875 163 167 192
1375 69 1027.0487060546875 166 172 196
1388 69 1035.04833984375 187 193 215
1440 69 1068.016845703125 167 173 197
1486 69 1097.004150390625 158 160 185
1487 69 1098.004150390625 167 169 194
1488 69 1099.004150390625 169 169 197
1489 69 1100.004150390625 163 163 191
1673 69 1224.02001953125 167 181 207
1674 69 1225.02001953125 162 176 202
1675 69 1226.02001953125 173 187 213
1676 69 1227.02001953125 178 194 217
1677 69 1228.0198974609375 172 188 211
1680 69 1229.0198974609375 169 185 211
1681 69 1230.0198974609375 165 186 207
1682 69 1231.0198974609375 170 200 211
1683 69 1232.0198974609375 156 186 197
1727 69 1261.0396728515625 163 177 204
1728 69 1262.0396728515625 156 170 197
1813 69 1323.0740966796875 145 162 190
1820 69 1328.0738525390625 157 177 202
1821 69 1329.07373046875 165 187 210
1822 69 1330.07373046875 163 185 208
1882 69 1373.105224609375 148 157 190
1883 69 1374.1051025390625 152 161 192
1884 69 1375.1051025390625 152 163 191
1890 69 1379.104736328125 154 179 201
1891 69 1380.104736328125 153 180 199
1892 69 1381.1046142578125 152 179 198
1897 69 1383.1044921875 161 179 203
1898 69 1384.1043701171875 166 187 208
768 70 722.7509765625 49 71 84
772 70 724.743408203125 82 102 111
774 70 724.743408203125 97 121 125
816 70 739.3578491210938 131 144 160
817 70 740.3546142578125 127 141 154
844 70 750.0933227539062 133 146 162
885 70 766.7652587890625 142 144 167
954 70 797.27099609375 144 157 174
1103 70 870.5521240234375 161 172 194
1106 70 871.551513671875 163 174 196
1107 70 872.5508422851562 164 175 197
1108 70 873.5502319335938 163 174 196
1111 70 874.5496215820312 183 194 214
1142 70 890.4403686523438 155 170 191
1196 70 920.31298828125 163 175 197
1197 70 921.3126220703125 175 188 207
1198 70 922.3123168945312 176 187 207
1202 70 924.3116455078125 174 187 206
1236 70 943.2338256835938 158 165 191
1237 70 944.2335815429688 179 190 212
1238 70 945.2332763671875 182 195 214
1271 70 964.1680297851562 164 175 197
1275 70 966.1676635742188 178 194 210
1276 70 967.1675415039062 179 192 209
1369 70 1024.05908203125 172 176 203
1373 70 1025.05908203125 173 175 200
1374 70 1026.0589599609375 176 182 206
1375 70 1027.0589599609375 168 176 199
1481 70 1095.00732421875 168 174 196
1488 70 1099.00732421875 170 172 197
1673 70 1224.0146484375 166 182 205
1674 70 1225.0146484375 161 177 200
1675 70 1226.0146484375 178 196 216
1676 70 1227.0146484375 179 198 215
1727 70 1261.0321044921875 170 190 214
1728 70 1262.0321044921875 164 189 209
1729 70 1263.0321044921875 171 193 214
1812 70 1322.06396484375 133 150 178
1813 70 1323.0638427734375 152 169 197
1814 70 1324.0638427734375 149 169 194
1820 70 1328.0635986328125 159 184 206
1821 70 1329.0635986328125 165 192 209
1822 70 1330.0634765625 165 193 207
1823 70 1331.0634765625 164 190 205
1827 70 1333.0633544921875 158 182 206
1828 70 1334.0633544921875 160 185 207
1881 70 1372.09326171875 154 163 192
1882 70 1373.09326171875 161 170 199
1883 70 1374.0931396484375 164 175 203
1884 70 1375.0931396484375 165 179 205
1891 70 1380.0927734375 154 180 197
1892 70 1381.0926513671875 161 184 202
767 71 721.8427734375 78 100 111
836 71 747.1773681640625 121 134 150
984 71 810.1419677734375 138 149 167
985 71 811.1405639648438 139 150 168
1102 71 869.5889892578125 163 174 196
1103 71 870.5883178710938 168 179 201
1106 71 871.587646484375 163 174 196
1135 71 886.4744873046875 164 176 202
1140 71 888.473388671875 173 186 205
1141 71 889.472900390625 169 184 203
1142 71 890.4723510742188 165 177 199
1196 71 920.339599609375 178 190 212
1197 71 921.3392333984375 180 193 212
1225 71 937.2582397460938 157 165 186
1265 71 960.18798828125 168 175 201
1266 71 961.1878051757812 160 167 193
1270 71 963.1874389648438 181 189 212
1271 71 964.1871948242188 175 187 209
1325 71 996.1129150390625 150 156 180
1368 71 1023.0703735351562 173 177 204
1369 71 1024.0703125 169 173 200
1373 71 1025.0701904296875 188 192 217
1374 71 1026.0701904296875 188 196 217
1375 71 1027.070068359375 176 187 207
1475 71 1091.011474609375 164 172 193
1486 71 1097.0113525390625 188 193 215
1541 71 1133.00048828125 177 185 208
1542 71 1134.00048828125 183 196 213
1543 71 1135.00048828125 177 193 209
1718 71 1255.0255126953125 166 178 204
1719 71 1256.0255126953125 165 177 203
1720 71 1257.0255126953125 172 187 210
1721 71 1258.025390625 175 191 214
1722 71 1259.025390625 175 191 214
1727 71 1261.025390625 168 193 213
1728 71 1262.025390625 157 184 203
1729 71 1263.025390625 157 182 202
1730 71 1264.0252685546875 161 179 201
1812 71 1322.054443359375 142 162 189
1813 71 1323.054443359375 161 181 208
1814 71 1324.0543212890625 167 189 212
1815 71 1325.0543212890625 169 191 214
1820 71 1328.05419921875 169 194 214
1882 71 1373.0819091796875 168 179 207
1884 71 1375.081787109375 169 185 208
1885 71 1376.081787109375 173 190 210
759 72 718.9443359375 48 71 77
761 72 720.9362182617188 51 71 80
767 72 721.93212890625 90 108 118
805 72 735.5338134765625 116 132 147
836 72 747.2543334960938 130 143 159
837 72 748.2512817382812 139 152 168
906 72 775.6784057617188 131 143 159
950 72 795.3898315429688 133 141 162
1102 72 869.6263427734375 165 180 199
1132 72 885.50830078125 164 175 197
1133 72 886.5077514648438 160 171 193
1135 72 886.5077514648438 157 169 191
1136 72 887.5072021484375 173 186 205
1137 72 888.506591796875 171 184 203
1140 72 888.506591796875 178 191 210
1141 72 889.5060424804688 173 186 205
1223 72 935.2828369140625 157 164 192
1224 72 936.2825317382812 174 182 205
1225 72 937.2822265625 168 179 201
1265 72 960.2083129882812 170 180 205
1266 72 961.2080688476562 174 185 207
1267 72 962.2078857421875 169 180 202
1323 72 994.1287841796875 164 170 194
1324 72 995.128662109375 167 173 197
1325 72 996.1284790039062 161 167 191
1363 72 1020.0828247070312 162 168 194
1364 72 1021.082763671875 168 176 199
1368 72 1023.0825805664062 177 185 208
1369 72 1024.08251953125 181 189 210
1372 72 1024.08251953125 181 186 208
1373 72 1025.0823974609375 183 191 210
1374 72 1026.0823974609375 186 199 215
1473 72 1089.0164794921875 168 169 197
1474 72 1090.0164794921875 167 171 196
1475 72 1091.0164794921875 165 171 195
1537 72 1132.001708984375 192 201 216
1538 72 1133.001708984375 175 187 203
1651 72 1209.006591796875 160 167 193
1713 72 1252.01953125 153 171 195
1714 72 1253.01953125 159 180 201
1719 72 1256.01953125 167 185 205
1720 72 1257.01953125 173 194 211
1721 72 1258.01953125 170 193 207
1722 72 1259.0194091796875 176 199 215
1727 72 1261.0194091796875 173 196 214
1813 72 1323.0457763671875 161 183 206
1814 72 1324.045654296875 172 194 215
767 73 722.0228271484375 110 127 137
768 73 723.0186767578125 117 134 142
836 73 747.3325805664062 134 147 163
876 73 762.9849243164062 137 149 165
906 73 775.7448120117188 146 158 174
945 73 793.4531860351562 137 150 166
1129 73 884.5433959960938 153 164 186
1132 73 885.5427856445312 175 186 206
1133 73 886.5421752929688 168 179 199
1136 73 887.5415649414062 179 192 211
1137 73 888.5409545898438 174 187 206
1179 73 910.4004516601562 153 168 189
1180 73 911.4000244140625 152 167 188
1223 73 935.3079833984375 176 183 211
1224 73 936.3076171875 181 192 214
1225 73 937.3073120117188 169 180 200
1264 73 959.2299194335938 166 177 199
1265 73 960.2296752929688 181 192 214
1266 73 961.2294311523438 176 189 208
1318 73 992.1456298828125 163 169 193
1319 73 993.1455078125 168 174 198
1323 73 994.1453857421875 184 190 214
1324 73 995.1452026367188 181 187 211
1325 73 996.1450805664062 177 183 207
1358 73 1017.0963745117188 161 167 189
1359 73 1018.0962524414062 165 173 194
1362 73 1019.09619140625 165 172 198
1363 73 1020.0960693359375 181 189 212
1364 73 1021.0960083007812 181 189 210
1367 73 1022.0958862304688 170 178 201
1368 73 1023.0957641601562 185 196 214
1369 73 1024.095703125 183 194 212
1475 73 1091.0224609375 180 186 208
1532 73 1129.0040283203125 184 200 216
1649 73 1207.0037841796875 164 174 199
1651 73 1209.003662109375 169 179 204
1652 73 1210.003662109375 167 179 203
1712 73 1251.014404296875 158 176 200
1713 73 1252.014404296875 161 183 206
1714 73 1253.014404296875 177 200 218
1715 73 1254.014404296875 181 204 222
1718 73 1255.0142822265625 159 177 199
1719 73 1256.0142822265625 167 185 205
1720 73 1257.0142822265625 167 190 206
1721 73 1258.0142822265625 171 197 210
1792 73 1307.0382080078125 159 170 198
1793 73 1308.0382080078125 151 162 190
1794 73 1309.0382080078125 147 161 188
824 74 742.428466796875 125 141 156
869 74 761.0630493164062 123 135 151
897 74 771.8218994140625 131 138 157
898 74 772.8195190429688 133 140 159
902 74 774.8148193359375 146 158 174
940 74 790.5200805664062 141 154 170
972 74 805.3148193359375 143 156 173
1090 74 862.7102661132812 160 173 192
1091 74 863.7094116210938 162 173 193
1092 74 864.7086181640625 151 162 184
1127 74 882.580322265625 172 183 203
1128 74 883.5796508789062 174 187 204
1129 74 884.5789794921875 171 184 201
1132 74 885.578369140625 176 187 205
1175 74 909.43115234375 155 167 189
1176 74 910.4306640625 153 165 187
1178 74 909.43115234375 151 166 189
1179 74 910.4306640625 161 176 197
1180 74 911.43017578125 162 177 198
1214 74 931.3355712890625 156 163 189
1218 74 933.3348999023438 159 170 192
1220 74 935.3341674804688 178 191 210
1223 74 935.3341674804688 183 191 214
1224 74 936.3338012695312 186 197 215
1252 74 952.254150390625 161 172 192
1253 74 953.25390625 150 161 181
1264 74 959.2523193359375 171 182 202
1265 74 960.2520751953125 174 185 205
1313 74 989.163818359375 166 172 198
1314 74 990.1636352539062 163 167 192
1317 74 991.1634521484375 167 171 196
1318 74 992.1632690429688 182 190 209
1319 74 993.1631469726562 181 192 210
1320 74 994.1629638671875 169 177 198
1357 74 1016.1107177734375 167 173 197
1358 74 1017.110595703125 170 181 201
1359 74 1018.1105346679688 175 188 207
1362 74 1019.1104125976562 168 181 200
1363 74 1020.1102905273438 183 196 213
1364 74 1021.1101684570312 181 194 210
1365 74 1022.1100463867188 171 184 201
1367 74 1022.1100463867188 175 183 204
1530 74 1127.007080078125 183 189 211
1531 74 1128.007080078125 186 194 215
1650 74 1208.001708984375 172 189 209
1651 74 1209.001708984375 175 192 210
1652 74 1210.001708984375 177 196 211
1712 74 1251.010009765625 158 180 201
1713 74 1252.010009765625 169 192 210
1714 74 1253.010009765625 172 200 212
1715 74 1254.010009765625 171 199 211
1792 74 1307.031005859375 151 162 190
1793 74 1308.031005859375 152 168 194
