ply
format ascii 1.0
element vertex 1300
property float x
property float y
property float z
property float red
property float green
property float blue
end_header
1846 723 1440.8001708984375 155 175 199
1853 723 1445.5068359375 161 183 204
1861 723 1451.157470703125 158 174 200
1868 723 1454.9261474609375 150 167 193
1886 723 1467.1826171875 160 186 203
672 724 710.3421630859375 126 23 27
674 724 709.6118774414062 129 20 26
679 724 711.8047485351562 128 21 29
683 724 713.2699584960938 134 23 32
684 724 711.8047485351562 138 29 35
685 724 712.5369873046875 136 27 33
686 724 713.2699584960938 132 25 33
687 724 714.0034790039062 135 28 36
692 724 716.2080688476562 138 28 37
696 724 716.9442138671875 134 27 37
698 724 718.4183959960938 134 24 35
699 724 719.1564331054688 139 29 40
703 724 720.6344604492188 140 30 41
704 724 721.3743896484375 136 26 37
712 724 723.5979614257812 141 29 41
713 724 724.3403930664062 137 25 37
714 724 725.0834350585938 147 35 47
719 724 727.3162841796875 143 33 44
720 724 728.0618286132812 141 31 42
723 724 728.0618286132812 138 28 39
724 724 728.8079223632812 133 26 36
740 724 735.5501098632812 145 41 50
741 724 736.30224609375 146 41 48
749 724 738.5621337890625 139 32 42
752 724 740.8272705078125 152 41 50
753 724 741.5834350585938 148 37 46
768 724 747.6536865234375 147 35 47
964 724 838.84326171875 158 55 72
1338 724 1122.216064453125 70 69 77
1342 724 1123.1180419921875 121 122 140
1343 724 1124.02001953125 137 135 156
1377 724 1143.906005859375 179 176 195
1378 724 1144.811767578125 182 179 196
1379 724 1145.7176513671875 171 168 185
1383 724 1147.5299072265625 181 180 196
1384 724 1148.436279296875 177 174 191
1388 724 1150.24951171875 184 183 199
1389 724 1151.1563720703125 174 173 189
1394 724 1152.970458984375 180 182 197
1395 724 1153.8778076171875 175 177 192
1408 724 1161.1417236328125 197 201 213
1409 724 1162.05029296875 197 201 213
1410 724 1162.9591064453125 195 201 213
1415 724 1165.6865234375 185 193 206
1420 724 1168.4151611328125 197 205 216
1421 724 1169.3250732421875 197 205 216
1426 724 1171.1451416015625 198 206 217
1427 724 1172.055419921875 186 194 205
1428 724 1172.9659423828125 193 199 213
1441 724 1180.254638671875 203 213 222
1442 724 1181.1663818359375 202 215 223
1462 724 1193.0318603515625 196 204 217
1463 724 1193.945556640625 200 210 222
1464 724 1194.859375 188 198 210
1470 724 1198.51611328125 194 202 215
1474 724 1199.4306640625 195 205 217
1916 724 1489.2255859375 158 183 205
674 725 710.2957153320312 136 25 32
682 725 713.2180786132812 141 30 39
684 725 712.4865112304688 147 38 44
686 725 713.9502563476562 142 35 43
687 725 714.6831665039062 140 33 41
697 725 718.357177734375 142 32 43
698 725 719.0938720703125 140 30 41
700 725 720.5692138671875 138 31 41
701 725 719.8312377929688 138 31 41
702 725 720.5692138671875 144 34 45
705 725 721.307861328125 139 29 40
710 725 722.7869873046875 145 35 46
712 725 724.2686157226562 145 35 46
713 725 725.0103149414062 140 28 40
714 725 725.752685546875 146 34 46
719 725 727.9835205078125 141 34 44
723 725 728.7283325195312 139 32 42
725 725 730.2198486328125 138 32 42
739 725 735.4590454101562 142 41 49
740 725 736.2098999023438 146 42 51
741 725 736.9613037109375 147 41 51
745 725 738.4660034179688 151 44 52
752 725 741.4822998046875 143 33 42
772 725 749.8246459960938 148 38 51
776 725 750.58642578125 158 48 59
777 725 751.3488159179688 156 46 57
788 725 755.9345092773438 152 42 55
806 725 764.392578125 157 55 68
813 725 768.2584228515625 143 35 50
842 725 781.49853515625 147 39 54
965 725 840.238037109375 151 50 66
968 725 842.6820068359375 147 45 66
1090 725 906.5538940429688 126 30 41
1339 725 1123.5501708984375 83 86 93
1342 725 1123.5501708984375 130 131 149
1343 725 1124.451904296875 143 141 162
1344 725 1125.353759765625 144 139 159
1345 725 1126.2557373046875 153 145 166
1415 725 1166.1029052734375 169 175 189
1420 725 1168.83056640625 175 178 193
1426 725 1171.5596923828125 179 183 195
1427 725 1172.4696044921875 167 171 183
1428 725 1173.3797607421875 176 178 193
1441 725 1180.6658935546875 190 199 208
1442 725 1181.577392578125 183 192 201
1443 725 1182.4888916015625 182 191 200
1462 725 1193.438720703125 200 208 219
1463 725 1194.3521728515625 206 216 226
1464 725 1195.265625 195 205 215
1468 725 1197.0931396484375 193 203 213
1469 725 1198.007080078125 202 212 222
1470 725 1198.921142578125 197 207 219
1475 725 1200.749755859375 196 209 218
1476 725 1201.664306640625 197 207 219
1497 725 1214.4813232421875 197 207 219
1498 725 1215.3978271484375 193 199 215
670 726 710.2520751953125 132 21 28
673 726 712.4387817382812 136 25 32
674 726 710.9802856445312 133 22 29
681 726 713.1690063476562 142 33 39
683 726 714.63134765625 143 33 42
684 726 713.1690063476562 144 37 45
685 726 713.8998413085938 139 32 40
686 726 714.63134765625 142 32 43
688 726 716.0963745117188 141 29 41
697 726 719.0340576171875 141 31 42
698 726 719.7700805664062 145 35 44
702 726 721.2440795898438 141 31 42
703 726 721.9819946289062 137 27 40
704 726 722.7205810546875 142 32 45
706 726 722.7205810546875 143 33 44
711 726 724.1995849609375 151 41 50
713 726 725.6810302734375 138 28 39
714 726 726.4227294921875 139 29 38
719 726 728.6514892578125 145 40 47
720 726 729.3956298828125 141 34 44
723 726 729.3956298828125 147 40 50
724 726 730.140380859375 151 45 55
738 726 735.3706665039062 152 50 63
739 726 736.1202392578125 147 45 56
741 726 737.6211547851562 145 39 49
742 726 738.37255859375 148 41 49
744 726 738.37255859375 147 40 50
745 726 739.12451171875 150 43 53
746 726 739.8770141601562 144 34 47
748 726 739.12451171875 152 44 57
749 726 739.8770141601562 148 41 51
750 726 740.630126953125 146 39 49
751 726 741.3838500976562 146 39 49
790 726 758.1094970703125 147 41 51
807 726 765.8002319335938 162 63 81
840 726 780.5568237304688 155 52 71
893 726 805.0155029296875 154 47 65
934 726 824.2536010742188 162 60 81
1087 726 906.25048828125 142 48 62
1091 726 907.9349975585938 130 32 45
1343 726 1124.8843994140625 156 153 174
1344 726 1125.785888671875 170 167 186
1345 726 1126.6876220703125 171 168 187
1420 726 1169.246826171875 183 181 202
1462 726 1193.8463134765625 173 172 188
1463 726 1194.7593994140625 181 180 196
1464 726 1195.672607421875 181 183 198
1465 726 1196.5859375 171 170 188
1469 726 1198.4130859375 173 176 191
1470 726 1199.326904296875 171 172 190
1475 726 1201.1549072265625 179 187 198
1476 726 1202.069091796875 185 188 203
1496 726 1213.9658203125 196 204 215
1497 726 1214.8818359375 196 204 215
1498 726 1215.798095703125 196 202 216
1502 726 1217.630859375 203 211 222
1503 726 1218.5474853515625 198 208 218
1504 726 1219.4642333984375 199 205 219
1509 726 1221.298095703125 192 205 214
1510 726 1222.2152099609375 193 203 215
1511 726 1223.1324462890625 196 206 218
1512 726 1224.0498046875 195 208 217
1519 726 1228.638671875 205 218 227
1520 726 1229.556884765625 202 212 222
1525 726 1232.31201171875 205 213 226
1526 726 1233.230712890625 201 211 223
1530 726 1234.1495361328125 190 202 214
1531 726 1235.068359375 195 207 219
1532 726 1235.9874267578125 199 209 221
1533 726 1236.9066162109375 191 200 215
1548 726 1246.1051025390625 194 206 218
1549 726 1247.025634765625 194 204 216
673 727 710.9381103515625 134 20 28
676 727 711.6656494140625 134 24 33
680 727 713.1226806640625 136 25 32
682 727 714.5823974609375 136 29 37
685 727 714.5823974609375 145 38 46
686 727 715.313232421875 144 34 45
687 727 716.044677734375 146 36 47
698 727 720.4470825195312 141 31 40
699 727 721.1830444335938 141 31 40
702 727 721.919677734375 145 35 46
707 727 724.13330078125 142 32 43
708 727 724.8723754882812 145 35 46
710 727 724.13330078125 146 36 45
711 727 724.8723754882812 141 31 40
718 727 728.577392578125 152 47 54
722 727 729.3202514648438 144 37 47
723 727 730.063720703125 147 41 51
724 727 730.8078002929688 146 40 50
740 727 737.5316772460938 148 43 57
741 727 738.2817993164062 146 40 52
745 727 739.7837524414062 150 43 53
746 727 740.53564453125 144 36 49
748 727 739.7837524414062 153 45 58
749 727 740.53564453125 151 43 56
750 727 741.2880859375 146 38 51
751 727 742.0410766601562 150 42 55
776 727 751.8829956054688 157 51 65
777 727 752.6439819335938 153 47 61
778 727 753.4055786132812 148 41 57
779 727 754.167724609375 157 50 66
783 727 755.6937255859375 158 51 67
789 727 757.98681640625 158 52 66
790 727 758.7522583007812 156 50 62
811 727 767.9797973632812 156 51 68
858 727 789.8005981445312 163 60 77
877 727 798.4785766601562 157 56 74
934 727 824.8448486328125 166 68 91
1086 727 905.94921875 137 43 59
1469 727 1198.81982421875 180 178 199
1470 727 1199.7332763671875 182 179 200
1475 727 1201.5606689453125 169 172 187
1497 727 1215.2830810546875 183 187 199
1503 727 1218.947509765625 174 182 193
1504 727 1219.8638916015625 179 182 197
1509 727 1221.6971435546875 180 190 200
1510 727 1222.614013671875 175 183 196
1519 727 1229.035400390625 184 197 206
1520 727 1229.9532470703125 196 206 216
1525 727 1232.7076416015625 194 202 213
1526 727 1233.6259765625 192 200 213
1530 727 1234.54443359375 195 205 217
1531 727 1235.4630126953125 196 206 218
1532 727 1236.3818359375 193 203 215
1548 727 1246.496337890625 199 213 224
1549 727 1247.41650390625 202 214 226
1550 727 1248.3369140625 199 209 221
1555 727 1251.0987548828125 200 217 227
1556 727 1252.01953125 193 210 220
1561 727 1254.7828369140625 196 213 221
1562 727 1255.7042236328125 193 207 218
1566 727 1256.6256103515625 200 214 225
1567 727 1257.5472412109375 197 209 221
1568 727 1258.4688720703125 195 204 219
1584 727 1268.6153564453125 187 207 216
1585 727 1269.5384521484375 181 199 211
1586 727 1270.461669921875 187 199 215
680 728 713.807373046875 140 29 38
684 728 714.5361938476562 139 32 40
686 728 715.9957885742188 146 36 47
691 728 718.1900634765625 142 32 43
692 728 718.9227905273438 147 37 46
713 728 727.0247802734375 153 46 56
746 728 741.1950073242188 151 45 57
765 728 747.98193359375 152 44 59
767 728 749.4965209960938 162 54 70
777 728 753.2927856445312 158 52 66
778 728 754.0537109375 152 47 61
779 728 754.815185546875 154 49 63
807 728 767.0736694335938 173 79 93
816 728 770.1597290039062 162 61 77
847 728 784.9312133789062 165 66 84
892 728 805.4321899414062 171 72 90
924 728 821.4140014648438 169 74 98
954 728 835.945556640625 168 76 99
1510 728 1223.0135498046875 178 175 196
1520 728 1230.350341796875 177 178 198
1525 728 1233.103759765625 183 180 201
1531 728 1235.8583984375 185 184 202
1532 728 1236.77685546875 183 181 202
1533 728 1237.6954345703125 179 177 198
1548 728 1246.88818359375 181 191 203
1549 728 1247.80810546875 186 194 207
1550 728 1248.7281494140625 180 183 202
1555 728 1251.4891357421875 185 198 207
1560 728 1254.251220703125 193 203 213
1561 728 1255.172119140625 193 203 215
1562 728 1256.0931396484375 174 181 197
1566 728 1257.0142822265625 188 198 208
1567 728 1257.9356689453125 192 202 212
1568 728 1258.8570556640625 189 197 210
1584 728 1269.0003662109375 197 218 223
1585 728 1269.9232177734375 199 218 225
1586 728 1270.84619140625 190 207 217
1600 728 1279.157958984375 191 208 218
1601 728 1280.08203125 197 215 225
1602 728 1281.0062255859375 192 210 222
1603 728 1281.9305419921875 193 211 223
1608 728 1284.7042236328125 192 208 221
1609 728 1285.6290283203125 189 205 218
1614 728 1288.404052734375 193 207 220
1615 728 1289.3292236328125 198 215 225
1620 728 1291.1800537109375 188 206 218
1621 728 1292.1055908203125 185 205 214
1622 728 1293.0313720703125 191 211 222
1639 728 1304.14794921875 187 200 217
1646 728 1308.7845458984375 187 200 216
678 729 714.4927978515625 139 25 35
817 729 771.5672607421875 160 61 79
891 729 805.2459106445312 170 76 90
892 729 806.0396728515625 168 74 90
893 729 806.8339233398438 174 77 94
925 729 822.8128662109375 173 81 102
953 729 835.7206420898438 179 89 114
965 729 841.4011840820312 178 85 114
966 729 842.21435546875 173 80 111
983 729 850.3675537109375 175 91 115
999 729 859.3811645507812 161 77 101
1015 729 866.7900390625 183 101 124
1016 729 867.6151123046875 181 101 126
1087 729 906.7904663085938 137 47 59
1091 729 911.237060546875 126 33 44
1548 729 1247.2806396484375 175 182 198
1561 729 1255.56201171875 172 178 194
1562 729 1256.4827880859375 176 178 199
1566 729 1257.4036865234375 179 185 199
1567 729 1258.32470703125 173 179 195
1568 729 1259.245849609375 173 179 195
1585 729 1270.30859375 170 184 193
1586 729 1271.2313232421875 172 184 196
1599 729 1278.6168212890625 179 191 203
1601 729 1280.46435546875 186 203 213
1602 729 1281.3883056640625 192 208 221
1603 729 1282.3123779296875 183 199 212
1604 729 1283.236572265625 173 187 200
1608 729 1285.085205078125 191 208 218
1609 729 1286.009765625 183 200 210
1610 729 1286.934326171875 180 192 206
1615 729 1289.7088623046875 194 211 221
1616 729 1290.6339111328125 192 206 219
1620 729 1291.55908203125 196 213 223
1621 729 1292.484375 191 209 219
1622 729 1293.4097900390625 191 209 219
1623 729 1294.3353271484375 190 208 218
1639 729 1304.5233154296875 196 212 227
1640 729 1305.4500732421875 190 208 220
1641 729 1306.3770751953125 200 216 231
1646 729 1309.1585693359375 201 217 230
1647 729 1310.0858154296875 198 214 229
1651 729 1311.94091796875 200 216 231
1652 729 1312.86865234375 198 214 227
1653 729 1313.79638671875 199 215 230
1654 729 1314.724365234375 194 207 224
1659 729 1316.5804443359375 190 209 224
1660 729 1317.5086669921875 187 209 223
1678 729 1329.5848388671875 190 207 223
664 730 709.41455078125 127 22 27
666 730 709.41455078125 132 25 31
674 730 713.03857421875 138 27 34
681 730 715.220947265625 139 30 36
685 730 715.94970703125 147 41 51
713 730 727.69775390625 157 55 68
719 730 730.6599731445312 160 59 73
965 730 841.9839477539062 164 76 100
984 730 851.7611083984375 168 88 113
998 730 859.1309814453125 164 81 107
1050 730 886.4113159179688 188 114 141
1051 730 887.2440185546875 178 104 131
1086 730 906.490478515625 159 76 92
1602 730 1281.77099609375 172 177 197
1603 730 1282.69482421875 169 174 194
1609 730 1286.39111328125 173 178 197
1614 730 1289.1644287109375 183 186 205
1615 730 1290.089111328125 180 185 204
1616 730 1291.013916015625 181 183 204
1621 730 1292.8638916015625 185 192 210
1622 730 1293.7890625 176 183 202
1623 730 1294.7142333984375 174 181 200
1639 730 1304.899169921875 184 198 211
1640 730 1305.8258056640625 181 194 210
1641 730 1306.75244140625 175 187 203
1645 730 1308.6060791015625 184 200 213
1646 730 1309.5330810546875 185 203 215
1647 730 1310.460205078125 180 198 210
1652 730 1313.2421875 195 207 219
1653 730 1314.169677734375 195 207 221
1658 730 1316.0250244140625 191 209 223
1659 730 1316.952880859375 187 206 220
1660 730 1317.880859375 182 201 215
1661 730 1318.8089599609375 178 197 211
1677 730 1329.0244140625 194 216 227
1678 730 1329.9537353515625 193 213 224
1679 730 1330.8831787109375 198 216 228
1701 730 1344.83642578125 184 204 215
1702 730 1345.7674560546875 192 215 223
1703 730 1346.6986083984375 188 213 218
1704 730 1347.6297607421875 188 216 220
1705 730 1348.56103515625 185 212 219
1709 730 1350.4239501953125 188 212 222
1710 730 1351.3555908203125 183 207 217
1711 730 1352.287353515625 184 206 219
1716 730 1354.1510009765625 184 203 218
1717 730 1355.0830078125 181 200 215
1718 730 1356.01513671875 178 197 214
958 731 839.3235473632812 164 76 98
965 731 842.5675048828125 156 71 92
966 731 843.3795166015625 154 69 92
1015 731 867.9222412109375 171 89 112
1057 731 891.1301879882812 184 104 131
1092 731 910.3955078125 125 37 49
1093 731 911.237060546875 122 36 47
1094 731 912.0789184570312 116 30 43
1096 731 913.763671875 109 29 42
1639 731 1305.27587890625 173 182 199
1640 731 1306.2021484375 170 179 196
1641 731 1307.1285400390625 164 171 190
1646 731 1309.908447265625 169 185 200
1652 731 1313.6163330078125 179 188 203
1653 731 1314.543701171875 178 187 202
1654 731 1315.4710693359375 176 183 202
1660 731 1318.2537841796875 170 188 202
1661 731 1319.1815185546875 165 181 196
1662 731 1320.1094970703125 166 182 197
1677 731 1329.3941650390625 178 198 209
1678 731 1330.3232421875 178 196 208
1679 731 1331.25244140625 177 193 208
1700 731 1344.2711181640625 180 198 212
1701 731 1345.201904296875 185 203 215
1702 731 1346.132568359375 190 210 219
1703 731 1347.0634765625 181 204 212
1704 731 1347.994384765625 190 215 222
1705 731 1348.925537109375 177 202 209
1709 731 1350.7879638671875 189 213 223
1710 731 1351.71923828125 183 207 217
1711 731 1352.6507568359375 185 207 218
1716 731 1354.513916015625 197 215 229
1717 731 1355.4456787109375 193 212 226
1718 731 1356.3775634765625 191 210 225
1742 731 1372.2335205078125 182 208 221
1743 731 1373.1671142578125 182 208 221
1744 731 1374.100830078125 184 206 220
1748 731 1375.9683837890625 189 208 222
1749 731 1376.90234375 186 210 222
1750 731 1377.8363037109375 187 211 223
1751 731 1378.7705078125 185 207 221
1756 731 1380.6390380859375 190 212 226
1757 731 1381.5733642578125 186 208 222
1758 731 1382.5078125 183 205 219
1759 731 1383.4425048828125 176 195 212
1785 731 1401.2166748046875 169 187 211
984 732 852.9155883789062 146 63 81
998 732 860.2755126953125 148 65 85
1010 732 866.8436889648438 149 68 87
1049 732 886.6893310546875 175 97 119
1092 732 910.9363403320312 140 57 67
1093 732 911.7774047851562 131 45 54
1677 732 1329.7646484375 171 182 200
1678 732 1330.6934814453125 164 175 195
1679 732 1331.622314453125 169 177 200
1700 732 1344.637451171875 172 180 201
1701 732 1345.56787109375 173 181 202
1702 732 1346.4984130859375 180 191 209
1703 732 1347.4290771484375 179 190 208
1704 732 1348.3597412109375 171 184 201
1705 732 1349.29052734375 162 175 194
1710 732 1352.0836181640625 178 191 207
1711 732 1353.0147705078125 175 188 205
1716 732 1354.87744140625 179 190 210
1717 732 1355.8089599609375 184 195 215
1718 732 1356.7406005859375 169 180 200
1741 732 1371.6591796875 187 206 220
1742 732 1372.5924072265625 188 212 224
1743 732 1373.5257568359375 178 202 214
1744 732 1374.4591064453125 179 201 214
1748 732 1376.3262939453125 185 203 217
1749 732 1377.260009765625 189 209 220
1750 732 1378.1937255859375 187 207 218
1751 732 1379.1275634765625 182 201 215
1757 732 1381.9298095703125 191 210 224
1758 732 1382.864013671875 187 205 219
1759 732 1383.79833984375 173 191 205
1782 732 1398.7601318359375 173 205 218
1783 732 1399.696044921875 172 204 217
1784 732 1400.6319580078125 178 205 222
1785 732 1401.5679931640625 177 203 220
1801 732 1411.870361328125 179 202 220
1802 732 1412.8074951171875 181 204 220
1803 732 1413.74462890625 176 202 215
1804 732 1414.681884765625 176 202 217
1805 732 1415.6192626953125 179 202 218
1809 732 1417.4942626953125 175 201 216
1810 732 1418.431884765625 176 204 216
1811 732 1419.36962890625 179 205 218
1812 732 1420.307373046875 168 194 209
1817 732 1423.1212158203125 174 201 218
1818 732 1424.059326171875 172 198 215
1819 732 1424.99755859375 173 199 216
1824 732 1426.8741455078125 170 199 213
1825 732 1427.8126220703125 169 197 211
1826 732 1428.751220703125 171 199 213
673 733 713.689697265625 141 30 39
893 733 808.6593627929688 153 56 75
1050 733 888.0765991210938 142 60 82
1059 733 893.902099609375 150 65 86
1094 733 913.1593627929688 123 37 46
1679 733 1331.992919921875 169 175 201
1718 733 1357.104248046875 165 169 194
1742 733 1372.951904296875 163 185 198
1743 733 1373.885009765625 162 184 197
1744 733 1374.818115234375 161 180 195
1748 733 1376.684814453125 168 184 199
1749 733 1377.6182861328125 172 190 204
1750 733 1378.5517578125 165 181 196
1755 733 1380.419189453125 171 188 204
1756 733 1381.3529052734375 174 192 206
1757 733 1382.286865234375 174 192 206
1758 733 1383.2208251953125 166 182 198
1759 733 1384.155029296875 169 182 199
1768 733 1390.6962890625 169 197 211
1769 733 1391.631103515625 175 203 215
1770 733 1392.56591796875 170 197 208
1782 733 1399.1129150390625 173 201 215
1783 733 1400.048583984375 174 202 216
1784 733 1400.9842529296875 166 193 210
1785 733 1401.920166015625 164 186 207
1802 733 1413.15673828125 171 194 210
1803 733 1414.09375 178 204 217
1804 733 1415.03076171875 175 201 216
1805 733 1415.9678955078125 170 196 211
1809 733 1417.8424072265625 174 202 214
1810 733 1418.77978515625 180 210 220
1811 733 1419.71728515625 173 203 213
1812 733 1420.65478515625 173 199 212
1817 733 1423.4678955078125 181 209 223
1818 733 1424.4058837890625 177 205 219
1823 733 1426.2818603515625 176 204 218
1824 733 1427.219970703125 179 207 219
1825 733 1428.158203125 175 203 215
1826 733 1429.0965576171875 174 200 213
1844 733 1441.30224609375 183 211 225
1845 733 1442.24169921875 180 208 222
1846 733 1443.18115234375 179 207 221
1847 733 1444.120849609375 182 208 223
1853 733 1447.880126953125 170 202 217
1854 733 1448.8201904296875 175 202 221
1861 733 1453.5216064453125 176 205 219
1869 733 1458.2249755859375 164 186 209
1870 733 1459.1658935546875 171 199 220
1871 733 1460.1068115234375 170 201 221
1880 733 1466.6959228515625 173 205 220
1887 733 1470.462890625 175 204 220
1888 733 1471.40478515625 178 205 222
1889 733 1472.3468017578125 164 187 205
1914 733 1489.315673828125 156 181 201
966 734 844.5477905273438 123 51 71
982 734 851.8638305664062 139 67 87
1750 734 1378.910400390625 171 183 205
1757 734 1382.64453125 164 176 198
1781 734 1398.531005859375 172 188 213
1783 734 1400.4017333984375 164 182 204
1784 734 1401.337158203125 165 183 207
1802 734 1413.506591796875 165 183 205
1803 734 1414.443359375 161 179 201
1804 734 1415.380126953125 160 178 202
1805 734 1416.3170166015625 159 175 200
1809 734 1418.191162109375 176 197 216
1810 734 1419.1282958984375 174 200 213
1811 734 1420.0655517578125 164 190 203
1812 734 1421.0028076171875 156 177 196
1816 734 1422.877685546875 170 191 210
1817 734 1423.8153076171875 177 200 218
1818 734 1424.7529296875 172 193 212
1819 734 1425.690673828125 154 175 194
1823 734 1426.6285400390625 173 191 211
1824 734 1427.56640625 176 197 214
1825 734 1428.5045166015625 169 190 207
1826 734 1429.4425048828125 167 186 203
1843 734 1440.7060546875 173 196 212
1844 734 1441.645263671875 176 202 217
1845 734 1442.58447265625 178 206 218
1846 734 1443.5238037109375 173 199 212
1847 734 1444.4632568359375 172 195 209
1853 734 1448.2216796875 172 200 214
1854 734 1449.1614990234375 166 192 207
1861 734 1453.8616943359375 169 199 210
1870 734 1459.5047607421875 167 194 213
1871 734 1460.4454345703125 165 197 212
1872 734 1461.3863525390625 167 200 215
1873 734 1462.3272705078125 171 205 217
1874 734 1463.268310546875 172 204 217
1875 734 1464.2093505859375 167 194 211
1879 734 1466.091796875 171 200 214
1880 734 1467.0330810546875 177 207 218
1881 734 1467.9744873046875 165 197 208
1886 734 1469.857421875 168 200 213
1887 734 1470.799072265625 176 206 217
1888 734 1471.7408447265625 185 211 224
1889 734 1472.6826171875 183 206 220
1890 734 1473.6243896484375 172 193 212
1915 734 1490.5908203125 161 190 204
1916 734 1491.5340576171875 166 200 210
1917 734 1492.4774169921875 160 197 206
1918 734 1493.4208984375 159 195 207
776 735 755.7909545898438 137 41 55
1803 735 1414.7935791015625 156 172 197
1810 735 1419.4774169921875 155 178 194
1812 735 1421.3514404296875 157 173 198
1823 735 1426.975830078125 166 181 204
1824 735 1427.9134521484375 158 175 195
1825 735 1428.851318359375 158 173 194
1826 735 1429.7891845703125 164 176 200
1846 735 1443.8670654296875 162 185 201
1847 735 1444.8062744140625 158 179 196
1853 735 1448.563720703125 160 186 201
1860 735 1453.2625732421875 169 197 211
1861 735 1454.2025146484375 158 186 200
1869 735 1458.9036865234375 155 177 198
1870 735 1459.8441162109375 156 181 201
1872 735 1461.725341796875 165 194 210
1874 735 1463.6068115234375 160 189 205
1879 735 1466.4296875 165 191 208
1880 735 1467.3707275390625 164 192 206
1881 735 1468.31201171875 174 203 217
1882 735 1469.253173828125 165 197 210
1886 735 1470.194580078125 162 191 205
1887 735 1471.135986328125 171 201 212
1888 735 1472.077392578125 174 201 212
1889 735 1473.01904296875 173 195 209
1915 735 1490.9232177734375 154 184 195
1916 735 1491.8663330078125 160 194 204
1917 735 1492.8094482421875 163 200 209
1918 735 1493.752685546875 155 191 203
1854 736 1449.8458251953125 155 173 195
1860 736 1453.6041259765625 148 168 192
1873 736 1463.0054931640625 156 181 203
1880 736 1467.7091064453125 159 181 202
1881 736 1468.6500244140625 156 181 201
1882 736 1469.591064453125 153 180 199
1887 736 1471.473388671875 163 190 207
1889 736 1473.3560791015625 165 186 203
1890 736 1474.2974853515625 153 169 192
1915 736 1491.2562255859375 156 177 196
1916 736 1492.1990966796875 160 186 203
1917 736 1493.1419677734375 157 183 198
1918 736 1494.0849609375 153 180 197
686 737 719.419921875 126 38 52
1087 737 910.5921020507812 152 73 92
1342 737 1127.03369140625 99 95 110
1343 737 1127.9326171875 107 103 120
1345 737 1129.73095703125 134 135 153
670 738 715.7611083984375 139 29 38
672 738 715.0391845703125 146 36 45
673 738 715.7611083984375 142 35 43
681 738 718.6557006835938 132 40 51
685 738 719.3809814453125 127 47 60
686 738 720.10693359375 124 44 57
711 738 729.6033325195312 114 46 61
719 738 734.0224609375 121 50 64
1344 738 1129.2696533203125 115 108 124
1345 738 1130.1685791015625 123 119 136
662 739 712.135498046875 141 30 37
667 739 714.291259765625 135 21 31
672 739 715.7318115234375 139 32 40
673 739 716.4530639648438 151 45 55
679 739 717.8976440429688 121 33 45
681 739 719.3448486328125 122 39 49
686 739 720.794677734375 117 46 60
691 739 722.9744262695312 104 40 56
702 739 727.3513793945312 105 45 57
706 739 728.8154907226562 103 42 57
707 739 729.5484619140625 104 43 58
710 739 729.5484619140625 109 51 66
711 739 730.2821655273438 97 39 54
713 739 731.7513427734375 106 45 61
714 739 732.4868774414062 104 46 61
716 739 733.9597778320312 111 53 67
718 739 733.9597778320312 113 55 69
721 739 733.9597778320312 104 42 57
745 739 745.085205078125 85 38 54
767 739 754.0822143554688 84 43 57
776 739 757.0997314453125 96 54 68
661 740 712.1158447265625 133 24 30
662 740 712.8323974609375 141 32 38
667 740 714.9860229492188 139 25 35
671 740 715.7052612304688 141 34 42
672 740 716.4251708984375 145 39 49
676 740 717.8670043945312 127 35 48
687 740 722.2084350585938 95 38 53
697 740 725.8443603515625 90 37 55
702 740 728.0336303710938 89 41 55
703 740 728.7647094726562 92 41 56
717 740 733.8998413085938 93 45 59
721 740 734.635986328125 94 41 57
722 740 735.3726806640625 94 39 58
723 740 736.1100463867188 100 45 64
724 740 736.8480224609375 107 50 65
726 740 738.3258056640625 101 40 55
776 740 757.7552490234375 78 50 65
778 740 759.26611328125 79 48 64
782 740 762.2945556640625 79 51 66
783 740 761.53662109375 76 48 63
785 740 763.0531005859375 82 51 67
787 740 762.2945556640625 87 54 71
788 740 763.0531005859375 86 53 70
815 740 774.49658203125 76 58 72
816 740 775.2638549804688 78 60 76
1341 740 1127.0137939453125 64 63 71
1342 740 1127.9117431640625 79 77 91
1415 740 1170.7301025390625 197 205 216
1416 740 1171.6356201171875 194 202 215
661 741 712.8141479492188 137 28 34
667 741 715.6815185546875 138 24 34
672 741 717.1192626953125 143 42 50
673 741 717.839111328125 147 50 59
681 741 720.0347290039062 102 36 46
729 741 739.7384643554688 101 35 49
744 741 745.6735229492188 76 49 66
765 741 753.8965454101562 70 49 66
769 741 756.9042358398438 62 45 61
778 741 759.9210205078125 76 53 71
780 741 761.432861328125 78 55 73
785 741 763.7047729492188 76 53 71
788 741 763.7047729492188 81 58 76
789 741 764.4631958007812 74 51 71
815 741 775.138671875 74 63 79
816 741 775.9052734375 70 59 76
817 741 776.67236328125 70 59 76
820 741 778.9768676757812 63 50 70
828 741 782.056884765625 72 60 80
829 741 782.8281860351562 69 57 77
835 741 785.1452026367188 72 64 85
839 741 786.6924438476562 74 65 84
841 741 788.24169921875 76 67 88
849 741 792.1237182617188 67 59 80
851 741 792.1237182617188 74 69 89
905 741 817.2564086914062 96 97 118
1343 741 1129.249755859375 96 95 111
1344 741 1130.1478271484375 121 118 137
1441 741 1185.6558837890625 197 206 215
668 742 717.0955200195312 137 26 35
675 742 717.839111328125 113 38 45
676 742 718.5596923828125 104 31 40
722 742 736.0488891601562 79 45 61
728 742 739.673583984375 96 39 54
741 742 744.9295043945312 123 77 103
776 742 759.0684814453125 69 52 70
778 742 760.5767822265625 69 52 70
786 742 765.1150512695312 75 56 75
787 742 763.6000366210938 69 50 69
790 742 765.8733520507812 73 58 77
791 742 766.6322631835938 79 64 83
812 742 775.7815551757812 102 100 122
813 742 776.5474853515625 76 74 95
814 742 775.01611328125 63 58 78
815 742 775.7815551757812 63 56 74
816 742 776.5474853515625 59 55 72
817 742 777.31396484375 66 59 77
830 742 784.2359619140625 69 61 82
832 742 783.4647216796875 62 57 77
834 742 785.0076293945312 67 62 85
835 742 785.7798461914062 71 66 89
840 742 788.099609375 69 64 86
842 742 789.648681640625 68 60 84
847 742 791.19970703125 81 76 99
852 742 793.5300903320312 77 72 95
853 742 794.307861328125 76 71 93
856 742 795.086181640625 82 78 101
857 742 795.8649291992188 89 84 107
858 742 796.6442260742188 92 83 110
861 742 796.6442260742188 90 81 108
863 742 798.2042236328125 95 81 106
876 742 804.4638061523438 126 86 110
886 742 809.1785888671875 78 76 100
888 742 810.7539672851562 84 80 103
890 742 809.966064453125 90 88 109
891 742 810.7539672851562 74 73 91
893 742 812.3312377929688 76 75 93
906 742 818.6586303710938 87 88 109
1471 742 1205.1597900390625 185 189 201
661 743 713.5131225585938 136 25 32
665 743 714.9440307617188 135 26 32
669 743 717.8140258789062 142 36 46
713 743 733.7881469726562 69 45 59
718 743 735.990478515625 76 52 65
745 743 747.085693359375 68 52 65
775 743 758.3152465820312 76 62 79
789 743 765.1150512695312 73 62 79
841 743 789.5068359375 74 70 93
852 743 794.1593017578125 76 74 96
853 743 794.9364624023438 72 70 92
856 743 795.7141723632812 74 72 96
885 743 809.00927734375 74 74 98
886 743 809.795654296875 83 83 109
892 743 812.1575927734375 69 70 88
894 743 813.734619140625 82 85 104
895 743 814.5238037109375 70 72 93
924 743 828.0096435546875 78 78 102
925 743 828.8069458007812 84 82 106
928 743 829.604736328125 80 81 102
930 743 831.2015380859375 85 90 112
1497 743 1220.1512451171875 194 203 212
1504 743 1224.7138671875 195 208 216
659 744 712.7860717773438 138 22 31
668 744 717.791748046875 143 38 45
789 744 765.767578125 75 67 82
815 744 776.4251708984375 67 64 81
824 744 782.4334106445312 58 57 75
840 744 788.733154296875 63 60 81
847 744 792.462646484375 62 60 82
848 744 792.6064453125 72 68 91
849 744 793.3826293945312 73 71 93
852 744 794.1593017578125 64 65 86
857 744 796.4923095703125 78 76 100
887 744 811.19970703125 70 70 98
892 744 812.7736206054688 74 77 96
895 744 815.1380004882812 81 83 106
899 744 816.7166137695312 79 86 105
923 744 827.817626953125 86 87 115
924 744 828.6138916015625 84 85 113
925 744 829.41064453125 82 83 111
928 744 830.2078247070312 85 87 110
929 744 831.0054321289062 80 85 107
978 744 855.131591796875 107 105 127
979 744 855.9421997070312 108 106 128
984 744 857.5645751953125 111 116 138
1531 744 1240.655517578125 196 204 215
1532 744 1241.5704345703125 199 209 218
824 745 782.4334106445312 57 58 76
829 745 784.7401123046875 59 56 73
841 745 790.1405029296875 65 63 84
846 745 791.6880493164062 74 72 93
848 745 793.2376708984375 59 57 79
849 745 794.0132446289062 64 62 84
857 745 797.1204223632812 74 72 96
862 745 798.677001953125 75 73 94
885 745 809.627685546875 75 77 100
891 745 811.9864501953125 76 83 101
894 745 814.9650268554688 67 69 92
905 745 819.087890625 93 95 120
921 745 826.8331298828125 87 93 119
923 745 827.817626953125 81 82 110
928 745 830.8116455078125 77 81 106
941 745 837.2000732421875 106 78 100
964 745 847.6396484375 99 97 121
974 745 854.0989379882812 102 100 124
1011 745 872.8115234375 107 104 123
1551 745 1254.7923583984375 178 188 200
1557 745 1258.4593505859375 195 201 213
1561 745 1260.2935791015625 188 205 215
884 746 809.462158203125 77 82 104
886 746 811.0320434570312 77 75 99
894 746 814.9650268554688 69 70 91
898 746 816.54150390625 76 81 100
904 746 818.90966796875 75 75 99
929 746 831.6087036132812 76 82 106
972 746 853.0709228515625 111 109 131
1018 746 876.66015625 111 56 75
1586 746 1276.298583984375 185 193 206
966 747 849.843505859375 109 110 131
1086 747 913.5972900390625 118 119 139
1098 747 919.44384765625 112 35 43
1343 747 1131.015869140625 72 81 96
666 748 717.7555541992188 134 24 33
671 748 719.1863403320312 109 47 58
1344 748 1132.35546875 76 81 101
1345 748 1133.251953125 106 111 133
1641 748 1312.0770263671875 183 195 209
1661 748 1324.0849609375 181 199 211
1662 748 1325.0093994140625 181 197 210
656 749 714.8936767578125 130 20 29
660 749 715.6046142578125 143 32 39
671 749 719.8847045898438 114 54 66
672 749 720.6004638671875 96 46 58
739 749 746.8018188476562 139 90 109
771 749 760.2032470703125 58 51 67
787 749 766.219970703125 55 50 70
789 749 767.7297973632812 66 63 82
656 750 715.59765625 132 22 31
660 750 716.3079223632812 135 24 31
662 750 717.73046875 147 38 44
666 750 719.15576171875 132 26 36
723 750 740.854248046875 56 50 64
730 750 744.5266723632812 111 39 53
740 750 748.2145385742188 137 94 122
741 750 748.9539184570312 128 95 122
788 750 767.6307983398438 61 53 74
789 750 768.3853149414062 65 60 80
790 750 769.1404418945312 66 62 79
812 750 779.007080078125 81 83 104
847 750 794.3626098632812 66 64 88
1098 750 921.0917358398438 116 36 47
661 751 717.7221069335938 137 28 34
739 751 748.150390625 143 84 112
789 751 769.0416259765625 63 55 76
790 751 769.7960815429688 63 55 76
806 751 776.6112060546875 163 85 107
811 751 778.892822265625 81 83 108
812 751 779.6544189453125 82 84 107
813 751 780.4165649414062 62 64 85
824 751 785.0006103515625 59 60 80
834 751 788.835205078125 65 63 84
849 751 796.5431518554688 62 63 84
852 751 797.3167724609375 63 64 85
857 751 799.6405639648438 66 67 88
858 751 800.4161376953125 70 72 93
859 751 801.1922607421875 66 68 89
1422 751 1178.66455078125 193 199 211
1758 751 1388.2823486328125 173 192 206
657 752 717.7164916992188 136 25 34
660 752 717.7164916992188 143 32 39
744 752 751.0399169921875 66 55 71
806 752 777.2618408203125 165 90 111
807 752 778.0211791992188 142 84 106
818 752 782.588623046875 50 51 71
824 752 785.6443481445312 59 60 80
828 752 787.1753540039062 63 64 85
829 752 787.941650390625 57 58 79
834 752 789.4757690429688 67 68 88
835 752 790.24365234375 66 67 87
840 752 792.55029296875 63 61 82
849 752 797.1775512695312 61 62 83
852 752 797.9505004882812 69 70 90
853 752 798.7239990234375 70 68 89
856 752 799.4979858398438 57 58 79
857 752 800.2724609375 56 57 77
861 752 801.0474243164062 59 61 82
862 752 801.8229370117188 60 61 81
863 752 802.598876953125 69 68 86
864 752 803.3753662109375 64 60 77
905 752 822.1557006835938 81 82 103
1785 752 1407.2757568359375 162 185 201
814 753 780.1909790039062 60 62 83
817 753 782.4736328125 53 54 72
828 753 787.8184814453125 55 56 77
829 753 788.5841674804688 56 57 78
833 753 789.350341796875 59 60 80
835 753 790.8843383789062 63 64 84
838 753 791.652099609375 62 60 81
842 753 794.728271484375 63 61 82
845 753 794.728271484375 60 58 79
852 753 798.5850219726562 64 65 85
853 753 799.3578491210938 64 65 85
854 753 800.1312255859375 63 61 83
856 753 800.1312255859375 68 66 87
857 753 800.9050903320312 70 71 91
861 753 801.6795043945312 61 64 83
862 753 802.454345703125 61 62 82
864 753 804.005615234375 68 61 79
886 753 814.1363525390625 76 78 101
888 753 815.7021484375 66 66 90
891 753 815.7021484375 72 77 97
893 753 817.2698364257812 79 81 102
895 753 818.8394165039062 80 82 105
898 753 819.6249389648438 75 80 102
905 753 822.7715454101562 72 73 94
906 753 823.559326171875 72 73 94
920 753 829.0868530273438 81 83 106
930 753 835.4310302734375 74 82 103
1847 753 1449.6719970703125 162 192 203
1848 753 1450.608154296875 164 192 206
848 754 797.67724609375 75 73 95
853 754 799.9924926757812 68 69 90
882 754 813.19677734375 94 95 123
886 754 814.7594604492188 81 82 103
887 754 815.5415649414062 84 85 106
890 754 815.5415649414062 69 71 94
891 754 816.3240966796875 66 68 91
892 754 817.1071166992188 69 71 94
893 754 817.8905639648438 76 78 101
898 754 820.243896484375 66 68 91
899 754 821.0292358398438 71 73 96
903 754 821.8150634765625 78 78 102
904 754 822.6013793945312 78 78 102
905 754 823.3881225585938 73 73 97
906 754 824.1753540039062 74 74 98
912 754 827.328857421875 71 71 95
923 754 832.0726928710938 94 96 119
924 754 832.8649291992188 81 83 108
925 754 833.6575927734375 89 91 114
933 754 836.0382690429688 81 86 108
934 754 836.8327026367188 80 85 105
935 754 837.6276245117188 86 91 111
955 754 848.0006103515625 129 127 149
960 754 850.4046020507812 84 82 104
964 754 851.206787109375 90 92 115
1883 754 1475.3226318359375 164 190 205
1888 754 1477.1990966796875 172 195 211
814 755 781.4921875 56 59 78
892 755 817.7291870117188 72 72 96
893 755 818.5120849609375 78 78 102
894 755 819.29541015625 78 80 103
904 755 823.2192993164062 81 81 105
905 755 824.0054321289062 77 77 101
906 755 824.7921142578125 84 84 108
911 755 827.15478515625 79 80 101
923 755 832.68359375 92 94 117
933 755 836.6463012695312 81 85 110
942 755 842.2125854492188 123 59 75
959 755 850.201171875 91 89 111
963 755 851.0023803710938 93 91 115
965 755 852.6060180664062 100 102 125
966 755 853.408447265625 85 86 107
967 755 854.2113037109375 92 93 114
984 755 862.2626953125 107 109 132
997 755 868.7329711914062 100 101 122
1919 755 1500.081298828125 152 182 193
925 756 834.8778076171875 95 97 120
966 756 854.0052490234375 94 94 118
984 756 862.8533935546875 95 95 121
998 756 870.1292724609375 106 108 129
1006 756 874.9977416992188 114 116 137
1011 756 877.4371948242188 118 119 137
1015 756 878.2510986328125 96 81 104
1017 756 879.880126953125 98 61 78
1019 756 881.5106201171875 138 70 83
998 757 870.7158203125 105 107 130
1017 757 880.4600830078125 113 76 93
1050 757 897.6441650390625 122 131 148
1064 757 905.0579833984375 122 130 151
666 758 721.9646606445312 126 43 51
1017 758 881.0408325195312 100 66 83
1050 758 898.2138061523438 104 110 132
1052 758 899.8577880859375 117 122 144
1059 758 903.9739990234375 111 119 140
1086 758 918.0348510742188 104 106 129
1087 758 918.8650512695312 90 86 109
1092 758 921.357666015625 137 62 82
666 759 722.6686401367188 130 47 55
1052 759 900.4271240234375 116 121 143
1063 759 905.3645629882812 102 106 131
1084 759 916.9345703125 91 95 120
1085 759 917.7636108398438 91 95 120
1087 759 919.4226684570312 94 90 113
1099 759 925.239990234375 114 32 44
1100 759 926.0723266601562 110 33 43
662 760 721.9563598632812 134 25 31
666 760 723.3733520507812 139 53 62
744 760 753.7406616210938 83 66 85
769 760 764.8529052734375 60 51 70
771 760 764.8529052734375 67 56 73
772 760 765.5984497070312 66 54 74
781 760 771.4097290039062 62 50 70
790 760 774.40625 69 60 79
1344 760 1135.9246826171875 58 58 66
657 761 721.2503051757812 141 30 37
658 761 721.9563598632812 144 31 37
661 761 721.9563598632812 134 23 30
668 761 725.4970703125 110 60 69
744 761 754.4176635742188 77 48 68
745 761 755.1536254882812 76 49 68
758 761 761.0630493164062 71 50 69
770 761 764.7757568359375 77 58 77
772 761 766.2649536132812 69 50 70
776 761 767.0104370117188 67 53 70
785 761 772.2447509765625 74 55 74
786 761 772.9948120117188 78 57 76
1092 761 923.0281982421875 140 65 86
1344 761 1136.3740234375 62 61 69
1345 761 1137.267333984375 75 75 87
666 762 724.7847900390625 130 49 56
739 762 752.89306640625 155 101 124
740 762 753.6265869140625 133 91 113
741 762 754.3606567382812 116 81 103
744 762 755.0953369140625 92 48 65
765 762 763.2168579101562 86 53 72
766 762 763.958740234375 89 56 75
767 762 764.7012329101562 82 51 69
770 762 765.4443359375 83 52 70
771 762 766.18798828125 94 63 79
772 762 766.9321899414062 89 56 75
776 762 767.677001953125 83 52 70
777 762 768.4224243164062 84 53 71
781 762 771.4097290039062 81 48 69
812 762 784.2066040039062 120 103 139
816 762 784.96435546875 85 71 96
829 762 791.8080444335938 78 73 95
835 762 794.098876953125 76 68 89
840 762 796.3943481445312 64 62 84
1099 762 926.9066772460938 118 36 50
1100 762 927.737548828125 114 32 44
1345 762 1137.717041015625 81 81 93
1346 762 1138.610107421875 101 104 121
657 763 722.6686401367188 138 27 34
658 763 723.3733520507812 141 28 34
660 763 722.6686401367188 133 22 31
738 763 752.84130859375 149 76 95
739 763 753.573486328125 146 83 102
740 763 754.3062744140625 132 79 97
741 763 755.0397338867188 126 75 92
743 763 755.0397338867188 128 69 87
744 763 755.7738037109375 117 56 72
745 763 756.5084228515625 111 50 65
750 763 757.9795532226562 97 49 65
751 763 758.7160034179688 105 57 73
752 763 759.4530639648438 121 73 87
760 763 762.4073486328125 107 60 76
761 763 763.1473999023438 109 65 80
766 763 764.6293334960938 114 65 84
768 763 766.1135864257812 111 64 80
771 763 766.8565673828125 118 70 86
772 763 767.6001586914062 105 54 73
776 763 768.3442993164062 107 58 77
778 763 769.8344116210938 107 58 77
780 763 771.3267822265625 100 51 70
785 763 773.5696411132812 100 49 66
788 763 773.5696411132812 110 59 78
789 763 774.3184204101562 108 55 75
812 763 784.85986328125 118 86 123
816 763 785.616943359375 84 59 81
818 763 787.1327514648438 82 60 81
835 763 794.7439575195312 82 65 84
848 763 800.8707885742188 88 73 94
852 763 802.4076538085938 83 70 90
853 763 803.1768188476562 89 76 96
857 763 804.7167358398438 86 71 92
1100 763 928.2941284179688 116 34 46
1347 763 1139.953125 113 118 138
1365 763 1149.7869873046875 198 197 215
658 764 724.0828857421875 138 25 31
718 764 746.241943359375 87 55 70
739 764 754.2545776367188 146 72 87
750 764 758.6566772460938 133 62 78
765 764 764.5599975585938 138 70 85
766 764 765.3005981445312 129 61 76
768 764 766.7835693359375 128 60 73
775 764 768.2688598632812 141 70 88
776 764 769.0123291015625 135 64 82
777 764 769.7564697265625 127 59 74
778 764 770.5011596679688 131 62 80
779 764 771.2463989257812 131 62 80
784 764 773.485595703125 134 63 81
787 764 773.485595703125 135 63 77
788 764 774.233154296875 135 61 78
789 764 774.9812622070312 143 66 84
790 764 775.72998046875 153 76 94
805 764 781.73974609375 149 58 76
806 764 782.4934692382812 154 69 88
814 764 787.02734375 121 69 92
818 764 787.7848510742188 98 59 78
824 764 790.8204345703125 96 61 83
829 764 793.102783203125 103 68 88
835 764 795.3898315429688 94 59 79
836 764 796.1532592773438 92 57 79
840 764 797.681640625 99 66 87
841 764 798.4465942382812 86 53 74
849 764 802.2792358398438 93 55 76
850 764 803.0473022460938 93 55 76
854 764 804.5849609375 95 64 82
861 764 806.1246948242188 99 58 74
970 764 860.8002319335938 79 64 85
1100 764 928.8514404296875 122 40 52
1346 764 1139.5108642578125 85 88 105
1380 764 1159.1881103515625 199 207 218
1395 764 1166.364013671875 186 192 208
1396 764 1167.26171875 185 191 207
777 765 770.424560546875 145 62 78
779 765 771.9132080078125 138 55 71
784 765 774.1505126953125 144 60 76
785 765 774.8973999023438 150 66 82
790 765 776.3929443359375 153 62 79
805 765 782.3975830078125 157 64 82
816 765 786.9243774414062 147 89 104
833 765 794.512451171875 125 72 90
835 765 796.0364379882812 116 65 82
841 765 799.0907592773438 118 67 84
847 765 801.3869018554688 129 74 93
848 765 802.1533813476562 128 73 92
849 765 802.9202880859375 126 69 88
853 765 804.4556884765625 124 73 90
858 765 806.7626953125 129 70 88
886 765 819.1422119140625 142 77 97
1381 765 1160.5279541015625 193 201 212
1391 765 1165.9078369140625 196 204 217
1396 765 1167.702392578125 194 204 216
1397 765 1168.5999755859375 189 199 211
1416 765 1179.3837890625 190 191 211
674 766 730.4443969726562 104 49 54
805 766 783.0562133789062 155 58 77
812 766 786.823974609375 151 72 93
834 766 795.922119140625 149 82 99
849 766 803.5620727539062 147 76 92
857 766 806.6325073242188 142 69 86
861 766 807.4013671875 139 62 78
876 766 815.1177978515625 156 72 95
906 766 829.1302490234375 143 69 86
923 766 836.9808959960938 142 79 98
933 766 840.9232788085938 150 85 105
1416 766 1179.82080078125 193 201 214
1417 766 1180.7200927734375 192 202 212
1422 766 1183.419189453125 204 212 225
1423 766 1184.3192138671875 190 196 210
1429 766 1187.020263671875 177 183 199
1430 766 1187.9208984375 184 185 205
862 767 808.8096313476562 154 65 83
877 767 816.5249633789062 155 66 86
886 767 820.401123046875 154 71 87
892 767 822.732666015625 157 76 93
905 767 828.9710693359375 153 75 89
906 767 829.7529907226562 154 73 88
924 767 838.384765625 149 76 93
934 767 842.3265380859375 159 82 102
966 767 858.2039184570312 146 86 111
1466 767 1210.0103759765625 185 183 205
876 768 816.3853149414062 154 61 79
899 768 827.25390625 159 75 90
930 768 842.1519775390625 152 68 84
953 768 852.439453125 159 75 98
954 768 853.2338256835938 148 69 90
963 768 856.415771484375 149 75 98
966 768 858.8067016601562 152 80 104
967 768 859.6045532226562 156 83 110
1005 768 878.8765258789062 148 86 107
1011 768 882.111083984375 141 80 98
1466 768 1210.43798828125 192 200 213
931 769 843.5555419921875 155 66 84
935 769 844.3441162109375 149 60 78
954 769 853.84130859375 152 67 88
965 769 858.6134033203125 147 63 86
966 769 859.4102783203125 148 66 89
967 769 860.20751953125 151 69 92
984 769 868.2033081054688 145 67 89
999 769 876.240234375 143 70 90
1000 769 877.0462036132812 143 70 90
1010 769 881.8900146484375 136 63 82
1011 769 882.69873046875 137 66 84
1466 769 1210.8662109375 194 202 215
1506 769 1234.4071044921875 183 179 204
654 770 724.8123779296875 135 25 34
895 770 826.95166015625 155 61 79
942 770 848.90576171875 150 57 76
963 770 857.626953125 144 55 75
964 770 858.42236328125 138 46 67
968 770 861.6083984375 142 53 75
985 770 869.602783203125 149 64 85
998 770 876.0279541015625 145 62 82
999 770 876.8329467773438 148 65 85
1001 770 878.444091796875 147 64 84
1010 770 882.4788818359375 134 56 72
1011 770 883.2870483398438 135 58 74
1018 770 886.5235595703125 132 53 72
1059 770 908.529052734375 146 89 108
1527 770 1247.5400390625 186 189 208
652 771 724.1270751953125 125 20 27
667 771 729.7396850585938 139 29 40
678 771 733.9782104492188 138 30 45
681 771 734.68701171875 137 31 45
964 771 859.0285034179688 149 56 75
999 771 877.4263305664062 149 62 81
1010 771 883.0685424804688 137 54 72
1017 771 886.3013305664062 139 54 75
1018 771 887.1104736328125 138 53 72
1019 771 887.9200439453125 135 50 69
1050 771 903.3742065429688 153 82 100
1051 771 904.1913452148438 136 65 83
1052 771 905.0088500976562 139 66 83
1053 771 905.8267211914062 137 64 81
1086 771 923.0845336914062 143 78 100
1087 771 923.91015625 146 81 105
1092 771 926.3892211914062 163 82 101
1100 771 930.52783203125 128 45 55
1558 771 1267.06982421875 181 179 203
653 772 725.5411987304688 133 24 30
656 772 726.2402954101562 140 30 39
660 772 726.940185546875 134 22 34
672 772 731.8585815429688 137 27 38
680 772 734.6842651367188 131 23 38
692 772 739.6553344726562 139 28 44
693 772 740.3681640625 145 37 52
722 772 750.4165649414062 147 42 57
1019 772 888.5072021484375 148 59 79
1051 772 904.7679443359375 138 60 76
1053 772 906.4022216796875 134 58 71
1058 772 908.8564453125 142 65 83
1059 772 909.6752319335938 142 68 85
1065 772 912.1337890625 140 62 84
1086 772 923.6492919921875 146 74 94
1087 772 924.4744262695312 149 76 96
1088 772 925.2999267578125 147 69 91
1093 772 927.7785034179688 148 64 80
1099 772 930.2601928710938 135 47 59
1100 772 931.0880737304688 121 35 46
1557 772 1266.5701904296875 191 203 215
1558 772 1267.4813232421875 187 194 210
1564 772 1271.12744140625 185 190 209
654 773 726.955322265625 130 21 27
657 773 727.6544799804688 139 29 38
660 773 727.6544799804688 139 28 37
667 773 731.1607055664062 140 30 39
668 773 731.8640747070312 141 29 41
676 773 733.9782104492188 142 30 44
681 773 736.0985107421875 148 40 55
682 773 736.806640625 145 37 52
683 773 737.5154418945312 129 21 36
685 773 736.806640625 140 32 47
688 773 738.93505859375 146 35 52
692 773 740.3573608398438 143 32 48
698 773 742.4957885742188 143 35 51
699 773 743.2098999023438 143 35 50
719 773 751.1085205078125 156 51 66
1051 773 905.34521484375 128 43 62
1053 773 906.978515625 131 50 65
