ply
format ascii 1.0
element vertex 1295
property float x
property float y
property float z
property float red
property float green
property float blue
end_header
1443 778 1197.299072265625 195 198 215
793 779 803.1998291015625 170 155 194
828 779 809.0747680664062 106 60 86
1441 779 1195.934814453125 206 207 225
1443 779 1197.7344970703125 201 207 223
1471 779 1214.8634033203125 189 187 209
786 780 802.322265625 182 147 171
802 780 805.37255859375 168 156 192
1465 780 1211.6839599609375 202 211 226
717 781 878.2510986328125 86 84 85
718 781 879.0654296875 104 99 96
720 781 880.6951904296875 131 127 128
804 781 806.0186157226562 161 156 188
819 781 808.3099365234375 121 94 127
1504 781 1234.7064208984375 200 205 224
717 782 878.8321533203125 80 75 79
718 782 879.6459350585938 95 89 89
719 782 880.4600830078125 113 104 105
1022 782 873.6131591796875 83 41 53
1498 782 1231.51171875 206 214 227
1504 782 1235.1312255859375 207 215 226
718 783 880.2272338867188 105 99 99
719 783 881.0408325195312 119 110 111
745 783 888.3805541992188 131 134 149
822 783 809.6005249023438 144 114 142
1035 783 882.2000732421875 82 45 53
1048 783 892.04541015625 86 51 58
1049 783 891.8323974609375 83 46 53
1534 783 1253.6826171875 196 197 218
718 784 880.8092651367188 105 99 101
719 784 881.6223754882812 117 111 113
745 784 888.957275390625 138 140 155
948 784 841.9418334960938 144 34 43
1371 784 1158.3026123046875 69 72 79
1550 784 1264.092529296875 203 213 225
1562 784 1271.3685302734375 196 203 219
1568 784 1274.0992431640625 192 198 214
745 785 889.5347290039062 149 151 166
768 785 801.9931640625 121 35 44
844 785 814.7109985351562 109 93 119
953 785 842.0926513671875 142 31 40
1012 785 868.4722290039062 112 41 55
1020 785 873.2330932617188 95 47 59
1021 785 874.0280151367188 92 46 57
1039 785 886.0022583007812 80 40 49
1074 785 911.032958984375 78 41 49
1370 785 1157.864013671875 74 75 80
1371 785 1158.75537109375 90 93 100
1377 785 1161.4305419921875 144 141 170
1378 785 1162.3226318359375 165 160 190
1379 785 1163.2149658203125 173 168 198
1557 785 1269.0548095703125 201 210 225
1587 785 1287.2684326171875 185 194 211
790 786 807.08984375 119 31 43
945 786 839.6100463867188 135 29 41
1008 786 865.9197387695312 123 37 48
1012 786 869.0828247070312 112 46 58
1013 786 869.8746948242188 111 47 61
1021 786 874.634765625 89 41 53
1043 786 889.8073120117188 82 46 56
1046 786 892.2163696289062 77 44 51
1370 786 1158.3177490234375 71 71 79
1378 786 1162.774658203125 170 175 195
1379 786 1163.6666259765625 181 186 208
1390 786 1169.9149169921875 192 194 215
1622 786 1308.6824951171875 172 178 204
716 787 880.352783203125 65 64 69
1067 787 905.3485717773438 76 41 47
1371 787 1159.662841796875 84 82 93
1391 787 1171.2578125 203 208 227
1395 787 1172.1510009765625 201 206 225
1396 787 1173.0443115234375 198 201 220
1417 787 1185.568603515625 187 183 208
1604 787 1299.03662109375 207 221 234
1610 787 1302.6895751953125 196 212 227
1622 787 1309.0870361328125 194 202 223
758 788 801.8883666992188 149 135 168
764 788 802.6456298828125 150 115 155
766 788 802.6456298828125 115 76 105
946 788 841.647216796875 139 28 37
952 788 843.1998291015625 146 32 42
953 788 843.9768676757812 148 34 44
957 788 844.75439453125 145 29 40
961 788 846.310791015625 144 27 36
1021 788 874.634765625 88 45 55
1037 788 885.0 77 42 49
1041 788 888.2032470703125 80 45 52
1416 788 1185.1181640625 200 207 223
1624 788 1311.3206787109375 196 205 222
1655 788 1331.466064453125 177 188 210
758 789 802.542236328125 141 132 161
764 789 803.298828125 152 134 174
766 789 803.298828125 160 136 168
768 789 803.298828125 142 109 138
769 789 804.0559692382812 126 87 116
771 789 803.298828125 108 52 77
949 789 843.053955078125 146 30 41
950 789 843.8299560546875 149 33 44
957 789 845.3833618164062 142 26 37
986 789 854.74267578125 162 42 52
1009 789 867.3228759765625 122 45 55
1022 789 876.0364990234375 88 48 59
1024 789 877.6263427734375 82 45 53
1036 789 884.8010864257812 79 46 53
1653 789 1330.031982421875 199 217 231
1680 789 1347.46728515625 177 185 208
758 790 803.1967163085938 128 123 145
764 790 803.9527587890625 155 149 175
766 790 803.9527587890625 142 132 157
768 790 803.9527587890625 145 131 157
769 790 804.7092895507812 150 132 158
770 790 803.1967163085938 151 125 152
771 790 803.9527587890625 140 106 131
808 790 811.3198852539062 114 32 44
947 790 843.6853637695312 155 39 52
970 790 849.123046875 147 30 39
1009 790 867.9366455078125 122 44 57
1010 790 868.72607421875 113 39 52
1011 790 869.5159301757812 112 41 55
1013 790 871.0969848632812 107 46 61
1037 790 886.201416015625 77 47 55
1717 790 1370.8603515625 165 181 204
1718 790 1371.78173828125 164 174 201
766 791 804.6073608398438 143 133 158
768 791 804.6073608398438 147 138 165
769 791 805.36328125 139 129 156
770 791 803.8519897460938 135 116 144
771 791 804.6073608398438 155 130 159
778 791 806.1196899414062 122 54 65
780 791 806.1196899414062 107 27 36
785 791 806.1196899414062 132 39 49
971 791 850.5292358398438 149 32 41
1010 791 869.3399658203125 114 40 53
1014 791 872.4998779296875 96 46 58
1019 791 874.874267578125 81 48 57
1470 791 1217.8575439453125 202 207 226
1476 791 1220.55810546875 199 200 221
717 792 882.9207153320312 80 80 82
718 792 883.730712890625 90 86 85
770 792 804.5079345703125 143 118 150
777 792 806.0180053710938 151 110 126
778 792 806.7738037109375 131 85 98
780 792 806.7738037109375 123 61 72
789 792 808.2870483398438 124 28 39
954 792 847.2744750976562 144 28 37
1498 792 1234.5120849609375 196 199 216
1751 792 1394.693115234375 177 192 213
717 793 883.5077514648438 79 79 79
777 793 806.6734008789062 165 137 162
778 793 807.4286499023438 161 129 152
780 793 807.4286499023438 157 112 132
782 793 807.4286499023438 135 80 99
1011 793 871.358154296875 100 37 48
1499 793 1235.845458984375 201 207 223
1522 793 1250.2999267578125 192 190 212
1744 793 1390.462158203125 195 212 228
1745 793 1391.3848876953125 187 202 221
1751 793 1395.0770263671875 188 207 222
1784 793 1416.33935546875 174 190 213
1785 793 1417.2650146484375 180 194 220
717 794 884.0955810546875 81 81 81
792 794 809.594970703125 116 26 38
801 794 811.10791015625 125 30 38
803 794 811.10791015625 121 26 34
1549 794 1266.1201171875 184 180 205
1805 794 1431.5369873046875 171 186 209
800 795 811.0055541992188 123 28 36
803 795 811.7616577148438 126 31 39
807 795 812.518310546875 121 24 33
972 795 853.1928100585938 147 27 37
1804 795 1430.9857177734375 191 208 226
1845 795 1457.8988037109375 167 189 210
765 796 807.9863891601562 108 28 41
801 796 812.4161376953125 125 28 37
803 796 812.4161376953125 126 29 38
804 796 813.1721801757812 126 29 40
805 796 811.66064453125 129 32 43
807 796 813.1721801757812 126 26 36
815 796 813.9287719726562 122 22 34
816 796 814.6858520507812 128 28 40
1569 796 1278.7559814453125 186 191 213
1818 796 1440.6307373046875 188 211 227
1825 796 1444.341064453125 172 204 217
1826 796 1445.268798828125 178 204 221
1827 796 1446.19677734375 182 203 222
1845 796 1458.2681884765625 172 201 217
778 797 809.3972778320312 108 76 100
806 797 813.0713500976562 124 27 38
807 797 813.8267822265625 122 25 34
816 797 815.3391723632812 123 23 35
818 797 815.3391723632812 131 31 41
820 797 814.5827026367188 125 28 37
828 797 816.8536987304688 123 30 40
945 797 844.67333984375 152 44 57
946 797 845.4454345703125 144 29 42
1570 797 1280.083251953125 198 203 223
1846 797 1459.5670166015625 184 213 229
1889 797 1488.41162109375 156 178 201
778 798 810.054931640625 92 35 50
810 798 815.2373657226562 128 28 38
813 798 815.9932861328125 127 30 41
815 798 815.2373657226562 125 25 37
820 798 815.2373657226562 125 28 39
821 798 815.9932861328125 124 28 39
824 798 816.7496337890625 125 28 39
831 798 818.2640380859375 123 30 41
838 798 819.7804565429688 121 55 82
840 798 819.7804565429688 143 92 125
1011 798 873.8243408203125 98 35 44
1855 798 1466.4412841796875 179 200 221
768 799 809.3972778320312 117 24 34
780 799 809.3972778320312 97 34 42
815 799 815.8927612304688 129 29 41
820 799 815.8927612304688 130 33 44
822 799 817.40380859375 124 28 40
824 799 817.40380859375 128 31 42
826 799 816.6480102539062 127 27 37
838 799 820.4321899414062 115 31 54
839 799 819.67431640625 116 38 64
945 799 845.9462280273438 142 35 45
955 799 848.2605590820312 141 25 34
1653 799 1332.8472900390625 185 189 214
718 800 886.6707153320312 95 94 92
720 800 888.2865600585938 120 114 118
820 800 816.548828125 132 32 44
821 800 817.303466796875 124 27 38
822 800 818.0586547851562 127 30 41
828 800 818.8143920898438 129 27 40
1010 800 873.0383911132812 107 34 45
1372 800 1164.668212890625 79 81 96
1378 800 1167.3323974609375 135 135 163
1379 800 1168.2208251953125 143 143 171
1380 800 1169.1094970703125 155 152 181
717 801 886.4541625976562 78 78 80
718 801 887.2609252929688 87 86 84
719 801 888.068115234375 118 114 113
782 801 810.7132568359375 121 30 39
784 801 809.9611206054688 114 27 35
789 801 813.5355224609375 103 40 48
821 801 817.9596557617188 123 27 39
822 801 818.7142333984375 134 36 49
826 801 817.9596557617188 137 35 46
839 801 822.4949951171875 126 24 37
841 801 822.4949951171875 130 34 48
842 801 820.9811401367188 124 33 48
860 801 825.5289306640625 173 157 196
957 801 851.0758056640625 146 29 38
1371 801 1164.2413330078125 71 74 83
1378 801 1167.7919921875 143 144 172
1380 801 1169.5682373046875 164 165 193
1381 801 1170.456787109375 172 172 200
1385 801 1172.234130859375 179 175 200
1386 801 1173.1231689453125 179 173 199
1390 801 1174.9017333984375 184 179 202
1391 801 1175.791259765625 184 176 200
1392 801 1176.680908203125 172 162 189
784 802 810.6207275390625 122 29 37
785 802 811.372314453125 123 32 39
841 802 823.1482543945312 127 27 39
843 802 822.3916625976562 128 32 46
844 802 823.1482543945312 121 24 43
852 802 823.9053344726562 125 77 101
853 802 824.6629638671875 140 96 121
953 802 850.940673828125 146 29 38
954 802 851.7117919921875 146 30 39
956 802 850.940673828125 147 31 40
978 802 858.6734008789062 149 29 39
1371 802 1164.7030029296875 78 78 88
1378 802 1168.2520751953125 151 156 176
1379 802 1169.139892578125 164 172 193
1380 802 1170.02783203125 180 191 211
1381 802 1170.9158935546875 172 183 203
1386 802 1173.581298828125 187 192 212
1390 802 1175.359130859375 191 194 213
1391 802 1176.248291015625 191 192 212
1395 802 1177.1375732421875 188 193 215
1411 802 1186.93212890625 187 183 208
1679 802 1350.5306396484375 193 215 226
1718 802 1375.3035888671875 169 179 204
717 803 887.6378784179688 78 78 78
786 803 812.7835083007812 123 28 34
800 803 814.2880249023438 137 76 109
803 803 815.0410766601562 177 123 155
838 803 823.046142578125 125 23 34
853 803 825.315673828125 110 46 63
977 803 858.5301513671875 152 32 42
985 803 860.85595703125 159 42 50
987 803 862.4088134765625 165 49 58
1008 803 873.329833984375 111 30 37
1380 803 1170.4879150390625 191 199 218
1412 803 1188.27685546875 187 184 211
1416 803 1190.0596923828125 183 181 205
1417 803 1190.9512939453125 181 179 203
1422 803 1193.627197265625 183 183 207
1423 803 1194.51953125 179 177 201
772 804 811.942138671875 126 29 36
803 804 815.6990966796875 129 62 97
805 804 814.9465942382812 151 95 134
844 804 824.456787109375 134 33 47
849 804 825.2127075195312 132 34 49
856 804 826.72607421875 121 44 60
860 804 827.4835205078125 134 87 107
964 804 854.52734375 141 24 33
1443 804 1205.688232421875 182 176 202
1719 804 1377.0115966796875 195 212 222
786 805 814.1038208007812 128 28 36
804 805 817.1101684570312 111 34 66
860 805 828.136474609375 127 59 74
865 805 828.8938598632812 153 117 143
975 805 858.2505493164062 153 33 43
1749 805 1396.7178955078125 191 206 225
785 806 814.015380859375 131 31 39
799 806 817.7689208984375 126 29 40
815 806 818.521240234375 152 124 164
821 806 819.2740478515625 166 134 183
837 806 823.6030883789062 125 29 41
844 806 825.1121215820312 134 32 43
845 806 825.867431640625 130 28 39
1008 806 875.1982421875 111 28 36
1465 806 1220.00537109375 182 176 204
1476 806 1225.3836669921875 181 177 202
1477 806 1226.280517578125 175 171 196
1478 806 1227.1776123046875 174 165 194
1752 806 1399.870361328125 184 201 217
1813 806 1440.48779296875 161 178 206
789 807 816.1764526367188 123 23 31
798 807 817.6771850585938 125 23 34
806 807 817.6771850585938 117 27 37
815 807 819.1800537109375 131 92 123
821 807 819.9323120117188 160 133 176
824 807 820.68505859375 167 134 181
827 807 820.68505859375 167 122 163
840 807 825.013916015625 129 36 47
844 807 825.7681274414062 137 37 47
852 807 826.5228271484375 135 31 42
971 807 858.7508544921875 151 34 42
1478 807 1227.61962890625 180 176 201
1784 807 1420.53857421875 176 208 221
1802 807 1432.544921875 174 188 214
1803 807 1433.46923828125 172 190 212
1806 807 1436.24267578125 173 191 213
1810 807 1438.0921630859375 163 183 207
797 808 817.587890625 126 22 29
801 808 818.3379516601562 128 27 33
803 808 818.3379516601562 125 25 33
821 808 820.5912475585938 153 123 149
827 808 821.3433837890625 161 136 165
836 808 822.8493041992188 145 86 108
839 808 823.6030883789062 117 43 60
852 808 827.178955078125 138 34 45
1500 808 1241.528076171875 186 180 206
1505 808 1244.2254638671875 184 180 205
1506 808 1245.1248779296875 179 173 199
1820 808 1445.872802734375 167 188 207
758 809 811.1060180664062 108 35 42
785 809 815.3410034179688 127 26 32
821 809 821.2508544921875 139 96 113
825 809 822.7545166015625 162 141 158
827 809 822.00244140625 161 142 164
837 809 824.26025390625 154 109 132
841 809 823.5071411132812 124 60 77
858 809 828.5897827148438 138 32 42
862 809 830.099365234375 132 30 41
1512 809 1248.2603759765625 187 181 207
1515 809 1250.9600830078125 190 184 210
1522 809 1255.4625244140625 186 180 208
1528 809 1259.067138671875 178 172 198
1827 809 1449.9534912109375 190 206 229
1882 809 1487.9818115234375 164 184 211
758 810 811.7696533203125 105 30 37
767 810 813.2662353515625 124 27 34
786 810 816.7527465820312 130 29 35
787 810 817.5010986328125 129 28 34
813 810 821.9111938476562 129 32 41
814 810 820.410888671875 124 29 37
820 810 821.1607666015625 108 34 47
837 810 824.9181518554688 159 127 151
840 810 825.6712646484375 158 116 140
842 810 824.9181518554688 149 91 113
843 810 825.6712646484375 133 68 88
857 810 830.7550659179688 133 32 40
1379 810 1171.4490966796875 153 144 171
1534 810 1262.2044677734375 185 183 205
1535 810 1263.1060791015625 178 174 199
1847 810 1464.2230224609375 179 202 218
1861 810 1473.4954833984375 175 206 224
1868 810 1477.2071533203125 171 198 217
760 811 812.4340209960938 117 26 31
821 811 822.5722045898438 111 28 38
822 811 823.322509765625 117 40 50
839 811 825.5767822265625 160 131 159
842 811 825.5767822265625 165 119 148
843 811 826.3292236328125 161 108 136
1371 811 1167.486572265625 68 70 82
1379 811 1171.9129638671875 148 142 168
1380 811 1172.798828125 164 158 184
1381 811 1173.684814453125 180 174 200
1382 811 1174.571044921875 154 148 174
1385 811 1175.4573974609375 159 154 177
1386 811 1176.3438720703125 175 171 194
1390 811 1178.1175537109375 176 173 194
1550 811 1272.5604248046875 181 183 206
1551 811 1273.46337890625 184 186 207
1552 811 1274.366455078125 180 178 200
1557 811 1277.0767822265625 189 183 209
1558 811 1277.98046875 181 172 201
1563 811 1280.6923828125 183 179 204
765 812 814.5931396484375 121 24 31
804 812 821.0730590820312 128 27 35
806 812 820.3243408203125 124 20 31
820 812 821.8223876953125 124 29 37
1069 812 918.8013916015625 56 64 77
1077 812 925.2221069335938 61 67 81
1371 812 1167.952880859375 69 71 83
1372 812 1168.83740234375 102 104 119
1379 812 1172.37744140625 156 156 180
1380 812 1173.262939453125 177 177 201
1381 812 1174.148681640625 179 179 203
1385 812 1175.9205322265625 174 171 198
1386 812 1176.806640625 176 176 202
1387 812 1177.693115234375 179 179 205
1390 812 1178.5797119140625 178 178 202
1391 812 1179.4664306640625 177 175 199
1392 812 1180.3533935546875 175 169 197
1396 812 1181.240478515625 177 173 198
1557 812 1277.50537109375 189 192 211
1558 812 1278.4088134765625 184 182 206
1564 812 1282.0238037109375 183 181 205
757 813 813.01904296875 91 35 46
758 813 813.7647094726562 107 30 38
761 813 814.5109252929688 119 27 32
767 813 815.2576293945312 121 24 31
778 813 816.0048828125 126 30 34
817 813 822.4846801757812 138 37 45
828 813 825.3950805664062 112 34 56
867 813 831.4114379882812 131 30 44
871 813 832.9207763671875 133 33 45
1371 813 1168.419921875 64 66 78
1378 813 1171.957763671875 163 165 186
1385 813 1176.38427734375 184 186 211
1386 813 1177.2701416015625 188 192 217
1390 813 1179.0423583984375 186 191 213
1391 813 1179.9288330078125 193 195 218
1396 813 1181.7021484375 189 187 211
1411 813 1190.5797119140625 182 174 198
1412 813 1191.4683837890625 182 177 200
1413 813 1192.3572998046875 174 166 190
1418 813 1195.025146484375 182 174 197
1557 813 1277.9346923828125 203 210 226
1587 813 1296.0235595703125 188 186 210
758 814 814.4310913085938 111 32 38
786 814 817.4166870117188 125 25 33
818 814 823.896240234375 134 33 41
820 814 823.1476440429688 125 25 35
825 814 825.3950805664062 124 27 38
865 814 830.5624389648438 135 34 48
869 814 833.57666015625 132 32 44
875 814 834.3314819335938 135 33 46
945 814 852.9970703125 145 31 41
947 814 854.5267944335938 143 27 36
952 814 855.2923583984375 143 23 33
954 814 856.824951171875 143 26 35
956 814 856.0584106445312 146 29 37
1411 814 1191.03857421875 189 190 210
1413 814 1192.8155517578125 174 175 195
1417 814 1194.59326171875 176 174 196
1418 814 1195.4822998046875 180 178 200
1422 814 1197.260986328125 184 180 205
1423 814 1198.150634765625 178 174 199
1424 814 1199.0404052734375 179 173 199
1429 814 1200.820556640625 185 181 204
1616 814 1314.5858154296875 180 182 207
1618 814 1316.4027099609375 173 175 200
775 815 817.334716796875 123 26 33
784 815 816.588623046875 125 26 31
786 815 818.081298828125 125 25 33
828 815 826.056884765625 126 26 36
837 815 827.556640625 122 57 91
867 815 832.7262573242188 119 22 41
876 815 835.7421875 134 30 41
878 815 835.7421875 136 32 43
881 815 836.4974365234375 133 27 41
946 815 854.40625 148 32 43
957 815 857.4672241210938 144 27 35
965 815 859.7680053710938 148 28 38
1443 815 1209.2923583984375 178 172 198
1444 815 1210.183837890625 181 175 201
1445 815 1211.0755615234375 172 166 192
1640 815 1329.5491943359375 179 179 207
769 816 817.2551879882812 120 23 30
770 816 815.765869140625 121 21 29
818 816 823.23388671875 128 27 35
819 816 823.983642578125 131 30 38
871 816 834.8904418945312 128 34 48
875 816 835.64404296875 126 21 35
878 816 836.3982543945312 136 32 43
885 816 837.9080810546875 136 32 43
890 816 837.9080810546875 129 28 42
892 816 839.4200439453125 124 30 44
966 816 861.176513671875 143 26 35
978 816 865.0202026367188 151 31 41
1043 816 902.4965209960938 55 62 78
1044 816 903.2879028320312 62 67 86
1069 816 920.0 58 64 80
1429 816 1201.73291015625 190 198 211
1445 816 1211.5283203125 181 177 202
1465 816 1223.1312255859375 177 173 196
1467 816 1224.9188232421875 171 167 190
1618 816 1317.239501953125 189 201 217
1625 816 1320.8724365234375 174 180 204
1642 816 1331.7838134765625 182 188 212
1643 816 1332.69384765625 176 182 206
1648 816 1335.425048828125 183 187 212
1654 816 1339.068359375 171 178 204
717 817 891.8037719726562 79 79 81
780 817 818.667236328125 123 23 31
782 817 818.667236328125 120 23 30
784 817 817.92236328125 123 26 33
787 817 820.1585083007812 123 24 29
789 817 820.1585083007812 125 24 30
790 817 820.9049682617188 128 27 33
791 817 819.41259765625 122 21 25
800 817 820.9049682617188 128 27 33
801 817 821.6519775390625 124 23 29
802 817 822.3995361328125 123 22 28
807 817 822.3995361328125 126 22 31
816 817 823.896240234375 131 27 34
820 817 823.1476440429688 127 25 36
825 817 827.3826293945312 130 26 35
843 817 829.6294555664062 112 47 67
875 817 836.3013916015625 131 29 43
878 817 837.054931640625 136 32 43
881 817 837.8090209960938 141 33 48
885 817 838.5636596679688 136 30 42
903 817 844.4080810546875 107 45 60
905 817 843.1019897460938 128 69 87
951 817 856.4607543945312 145 25 35
954 817 858.7537231445312 152 35 44
966 817 861.81787109375 147 30 39
977 817 864.8895874023438 151 31 41
1002 817 877.2514038085938 132 26 40
1036 817 897.5845336914062 50 66 81
1037 817 898.3724365234375 53 67 80
1043 817 903.1085205078125 60 67 83
1444 817 1211.0908203125 199 200 221
1445 817 1211.9818115234375 201 199 221
1465 817 1223.5804443359375 176 172 197
1466 817 1224.4737548828125 182 180 202
1467 817 1225.3673095703125 176 172 195
1471 817 1227.15478515625 188 179 206
1472 817 1228.048828125 180 171 198
1473 817 1228.9429931640625 175 166 195
1477 817 1229.83740234375 177 171 197
1478 817 1230.73193359375 180 171 198
1648 817 1335.8387451171875 187 193 215
1656 817 1341.302734375 169 175 201
1679 817 1354.982666015625 168 176 199
772 818 818.5902709960938 121 22 27
793 818 821.5704345703125 124 23 29
819 818 825.3078002929688 130 29 37
820 818 823.811279296875 124 23 31
874 818 836.2069091796875 124 33 50
875 818 836.9593505859375 125 29 43
892 818 840.7294311523438 133 28 42
902 818 842.9976196289062 124 34 46
908 818 843.7546997070312 122 48 63
978 818 866.2978515625 150 30 40
979 818 867.06689453125 149 29 39
987 818 869.3767700195312 156 38 50
1029 818 895.0558471679688 53 66 82
1043 818 903.72119140625 62 70 83
1079 818 929.2103881835938 45 57 69
1086 818 932.4248046875 53 62 71
1471 818 1227.6033935546875 187 185 207
1472 818 1228.4970703125 185 183 205
1477 818 1230.284912109375 187 185 207
1478 818 1231.1790771484375 183 181 203
1479 818 1232.073486328125 172 168 193
1649 818 1337.1630859375 192 204 218
1680 818 1356.3038330078125 181 192 214
782 819 820.00244140625 120 24 28
791 819 820.74658203125 120 21 26
807 819 823.7286987304688 129 28 36
810 819 824.4755859375 129 28 36
815 819 824.4755859375 127 23 32
816 819 825.2230224609375 132 28 35
843 819 830.29150390625 126 26 38
884 819 839.1233520507812 133 29 40
902 819 843.651611328125 138 38 48
903 819 844.4080810546875 136 36 46
907 819 843.651611328125 131 33 46
960 819 860.8071899414062 149 32 41
965 819 862.3369140625 149 29 39
967 819 863.86865234375 150 30 40
977 819 866.1697387695312 148 28 38
1043 819 904.3345336914062 61 69 82
1499 819 1244.157958984375 187 181 207
1500 819 1245.05419921875 189 183 209
1505 819 1247.7440185546875 185 180 203
1506 819 1248.640869140625 177 172 195
1704 819 1372.24267578125 172 179 205
1705 819 1373.1573486328125 171 178 204
1706 819 1374.072021484375 170 177 203
1707 819 1374.9869384765625 169 176 204
1711 819 1376.8170166015625 173 181 204
1712 819 1377.732177734375 169 176 202
766 820 818.5157470703125 119 23 27
785 820 820.6710815429688 124 25 30
787 820 822.1587524414062 122 23 28
789 820 822.1587524414062 125 24 32
792 820 822.1587524414062 122 21 27
797 820 822.9033813476562 126 25 33
822 820 826.634765625 126 22 31
824 820 826.634765625 128 24 31
826 820 828.1310424804688 127 26 32
840 820 829.6294555664062 131 27 38
844 820 831.7030639648438 128 28 40
888 820 841.2877197265625 136 36 46
889 820 842.0415649414062 138 38 48
903 820 845.0621337890625 133 31 42
913 820 847.3328857421875 122 33 53
947 820 857.7534790039062 140 26 36
976 820 866.0438842773438 148 31 39
1029 820 896.295166015625 63 75 89
1043 820 904.9486083984375 61 67 81
1057 820 914.4462890625 48 56 67
1059 820 916.034912109375 46 55 72
1371 820 1169.8248291015625 65 65 73
1501 820 1246.39404296875 181 179 201
1514 820 1253.5684814453125 173 164 193
1522 820 1258.9559326171875 187 183 206
785 821 820.6710815429688 126 27 32
790 821 821.3403930664062 122 22 30
816 821 826.552490234375 127 23 30
818 821 826.552490234375 131 30 36
819 821 827.2991943359375 131 30 36
821 821 826.552490234375 128 26 37
822 821 827.2991943359375 127 26 34
823 821 828.0465087890625 134 30 39
824 821 827.2991943359375 127 23 30
825 821 828.0465087890625 127 23 30
837 821 829.5426635742188 125 23 34
852 821 833.1146240234375 123 31 42
886 821 841.9453735351562 123 32 47
902 821 844.9615478515625 130 26 37
905 821 845.7168579101562 134 30 41
907 821 844.9615478515625 132 28 39
920 821 849.5010375976562 114 31 57
953 821 859.9255981445312 143 27 38
1003 821 880.5526733398438 125 25 35
1030 821 897.6998291015625 64 76 90
1043 821 905.5633544921875 66 72 88
1513 821 1253.1129150390625 190 188 212
1533 821 1264.7864990234375 185 179 207
1534 821 1265.685546875 178 174 201
1535 821 1266.5848388671875 177 173 200
1743 821 1397.7742919921875 173 185 209
1744 821 1398.6915283203125 171 186 209
1751 821 1403.2794189453125 177 188 210
757 822 817.0311889648438 100 33 40
758 822 817.773193359375 115 30 37
804 822 825.7275390625 125 24 32
826 822 829.458251953125 129 28 34
901 822 844.86328125 134 30 39
902 822 845.6175537109375 133 29 38
908 822 846.3722534179688 134 30 39
921 822 850.9112548828125 120 26 44
952 822 859.8104248046875 142 24 38
957 822 861.3350219726562 147 30 39
964 822 862.8615112304688 153 33 43
1371 822 1170.7646484375 58 58 68
1372 822 1171.6470947265625 89 91 104
1551 822 1276.920166015625 181 179 203
1552 822 1277.82080078125 177 175 199
1557 822 1280.523681640625 176 177 198
1558 822 1281.425048828125 179 177 201
1563 822 1284.129638671875 180 181 202
1752 822 1404.59423828125 174 189 210
1753 822 1405.511962890625 160 170 195
1783 822 1423.8905029296875 182 185 216
758 823 818.4436645507812 119 37 43
764 823 819.185546875 122 22 30
812 823 827.1396484375 124 23 31
815 823 827.1396484375 127 23 32
818 823 827.8846435546875 125 24 30
820 823 827.1396484375 124 23 31
822 823 828.6301879882812 124 23 31
827 823 828.6301879882812 125 24 30
828 823 829.3762817382812 135 34 40
836 823 830.1228637695312 129 28 36
838 823 831.61767578125 130 29 37
847 823 833.1146240234375 128 24 33
901 823 845.5205688476562 139 33 43
904 823 846.274169921875 133 27 39
907 823 846.274169921875 135 29 39
912 823 848.5381469726562 136 32 43
925 823 850.8067016601562 130 36 52
943 823 856.6586303710938 123 31 52
1371 823 1171.2357177734375 73 76 85
1372 823 1172.1177978515625 88 91 106
1557 823 1280.9573974609375 179 181 202
1562 823 1283.6607666015625 178 178 204
1563 823 1284.5621337890625 181 183 206
1564 823 1285.4637451171875 177 177 201
1770 823 1416.927978515625 176 186 211
1785 823 1426.122314453125 166 178 204
771 824 819.8560791015625 124 24 32
837 824 831.5347290039062 133 29 38
845 824 833.7775268554688 124 18 28
855 824 834.5261840820312 136 32 41
861 824 836.7753295898438 122 28 44
916 824 850.7044067382812 136 30 42
928 824 853.7318115234375 130 27 44
944 824 856.7671508789062 137 29 44
947 824 859.0488891601562 142 26 37
976 824 867.972900390625 145 25 35
1043 824 906.794921875 59 66 82
1074 824 928.20361328125 54 60 74
1586 824 1298.5291748046875 182 184 207
1587 824 1299.4326171875 180 182 205
1803 824 1438.4801025390625 160 171 199
1805 824 1440.322509765625 166 180 206
1806 824 1441.243896484375 166 178 204
1811 824 1444.0086669921875 175 182 211
1812 824 1444.930419921875 172 182 207
1813 824 1445.852294921875 167 177 204
1818 824 1448.61865234375 166 182 205
814 825 827.732421875 124 20 29
825 825 830.708740234375 124 23 29
840 825 832.9465942382812 128 22 32
843 825 832.9465942382812 133 28 35
848 825 833.693603515625 128 22 32
850 825 835.189208984375 135 31 40
852 825 834.4411010742188 130 24 34
853 825 835.189208984375 134 28 38
856 825 835.9378051757812 127 23 32
857 825 836.6868896484375 133 29 38
864 825 836.6868896484375 114 32 46
926 825 852.8710327148438 136 30 42
973 825 868.6173095703125 149 29 38
975 825 867.8530883789062 150 30 40
1371 825 1172.1795654296875 59 62 69
1379 825 1176.5882568359375 144 142 164
1380 825 1177.4705810546875 166 171 190
1570 825 1289.03369140625 200 206 228
1586 825 1298.9583740234375 176 181 203
1604 825 1310.709716796875 184 186 211
1605 825 1311.6146240234375 173 175 198
1606 825 1312.5196533203125 175 175 203
1806 825 1441.6328125 179 194 217
1810 825 1443.475341796875 170 176 208
1811 825 1444.396728515625 174 183 212
1818 825 1449.0054931640625 164 182 204
1824 825 1451.77197265625 167 183 209
1826 825 1453.6168212890625 171 187 212
1828 825 1455.462158203125 154 165 193
759 826 819.719482421875 119 27 32
766 826 821.1990966796875 118 21 28
828 826 831.3759765625 122 22 30
836 826 832.1207885742188 128 22 32
839 826 832.8661499023438 131 25 35
840 826 833.6119995117188 125 20 27
843 826 833.6119995117188 131 26 33
845 826 835.1054077148438 127 21 31
848 826 834.3584594726562 131 27 34
849 826 835.1054077148438 133 29 36
853 826 835.8528442382812 133 27 37
864 826 837.349365234375 127 30 41
865 826 838.0984497070312 123 30 41
867 826 837.349365234375 123 29 45
868 826 838.0984497070312 118 27 44
926 826 853.525634765625 131 27 38
946 826 859.5870971679688 141 26 39
1002 826 882.3162841796875 133 27 39
1003 826 883.0883178710938 125 21 32
1038 826 904.1028442382812 47 52 71
1061 826 920.663330078125 48 54 66
1372 826 1173.5335693359375 69 71 83
1380 826 1177.94140625 151 146 169
1381 826 1178.8236083984375 169 166 187
1382 826 1179.7059326171875 167 164 185
1386 826 1181.4710693359375 178 179 197
1387 826 1182.35400390625 177 178 196
1391 826 1184.120361328125 180 181 201
1392 826 1185.0037841796875 188 191 208
1611 826 1315.6602783203125 173 179 201
1623 826 1322.0003662109375 172 178 202
1806 826 1442.022216796875 170 192 206
1847 826 1468.7725830078125 157 174 200
1855 826 1474.3177490234375 157 174 200
822 827 830.6317138671875 126 26 34
836 827 832.7880859375 129 23 33
842 827 833.5328369140625 127 22 29
844 827 835.02392578125 125 19 29
852 827 835.7703247070312 129 23 33
853 827 836.5172119140625 133 27 37
856 827 837.2645874023438 132 26 36
860 827 838.0125122070312 130 24 34
863 827 838.760986328125 131 25 35
867 827 838.0125122070312 130 26 37
868 827 838.760986328125 131 29 42
869 827 839.5099487304688 129 28 42
875 827 840.2594604492188 111 38 58
876 827 841.009521484375 115 47 70
953 827 862.5172729492188 144 26 38
979 827 872.2000732421875 150 30 40
1029 827 898.781982421875 64 76 90
1031 827 901.5924682617188 49 72 90
1035 827 901.13037109375 51 62 80
1036 827 901.9140625 49 61 77
1371 827 1173.126220703125 65 68 75
1372 827 1174.0068359375 76 78 90
1378 827 1176.64990234375 135 128 159
1381 827 1179.294677734375 169 164 187
1387 827 1182.82373046875 179 177 198
1388 827 1183.7064208984375 179 174 197
1391 827 1184.58935546875 164 162 184
1392 827 1185.4725341796875 166 164 185
1393 827 1186.355712890625 170 168 189
1396 827 1186.355712890625 171 174 193
1397 827 1187.2392578125 172 175 192
1398 827 1188.1229248046875 173 174 194
1625 827 1324.235595703125 170 174 201
1642 827 1335.1195068359375 173 177 202
1870 827 1483.94677734375 160 171 201
1880 827 1491.3516845703125 168 184 210
779 828 823.2843017578125 121 25 29
816 828 830.5570678710938 122 21 27
836 828 833.4560546875 129 25 34
840 828 834.9448852539062 127 22 29
843 828 834.9448852539062 129 24 31
850 828 837.1821899414062 130 25 32
852 828 836.4359130859375 133 28 35
857 828 838.6763305664062 128 22 32
862 828 840.172607421875 132 28 37
874 828 840.172607421875 121 29 44
875 828 840.9215087890625 122 31 48
876 828 841.6709594726562 120 33 49
925 828 853.426025390625 135 29 41
937 828 857.205322265625 134 24 35
968 828 868.4987182617188 153 33 43
973 828 866.972900390625 147 27 37
982 828 872.3215942382812 152 35 44
1000 828 880.7734985351562 128 23 37
1371 828 1173.6004638671875 69 69 77
1372 828 1174.480712890625 83 83 93
1412 828 1196.5491943359375 178 174 197
1413 828 1197.434326171875 177 173 196
1414 828 1198.3197021484375 180 176 199
1642 828 1335.5391845703125 176 180 207
1654 828 1342.803466796875 174 178 207
1655 828 1343.7120361328125 174 178 205
1872 828 1486.1766357421875 159 170 202
1875 828 1488.95263671875 157 177 201
1882 828 1493.581298828125 167 189 210
1883 828 1494.50732421875 163 185 206
1884 828 1495.433349609375 161 178 204
1890 828 1498.2122802734375 158 174 199
717 829 896.0050048828125 69 67 72
827 829 831.9693603515625 122 21 29
844 829 836.3569946289062 125 21 28
845 829 837.1021728515625 126 22 31
849 829 837.1021728515625 133 27 37
850 829 837.8478393554688 131 26 33
853 829 837.8478393554688 129 24 31
857 829 839.3408203125 135 29 39
863 829 840.0880737304688 129 23 33
866 829 840.8358764648438 137 30 40
868 829 840.0880737304688 132 28 39
874 829 840.8358764648438 132 30 43
875 829 841.584228515625 135 35 47
876 829 842.3330688476562 129 29 41
878 829 842.3330688476562 122 30 41
880 829 842.3330688476562 106 33 44
884 829 843.0824584960938 111 62 81
922 829 854.08251953125 135 30 44
945 829 860.7833862304688 143 29 39
970 829 867.6203002929688 151 31 40
1392 829 1186.411865234375 188 186 210
1418 829 1200.5552978515625 176 174 196
1419 829 1201.4407958984375 167 165 187
1423 829 1203.21240234375 185 183 205
1424 829 1204.098388671875 172 170 192
1430 829 1206.7576904296875 171 174 191
1431 829 1207.6444091796875 173 176 193
1650 829 1341.4052734375 175 181 207
1656 829 1345.038330078125 176 177 205
1661 829 1346.8555908203125 184 188 215
1663 829 1348.6734619140625 164 168 195
1883 829 1494.8848876953125 151 176 196
1884 829 1495.810791015625 161 181 205
1919 829 1518.9881591796875 148 170 191
718 830 898.0089111328125 86 81 85
772 830 823.95751953125 122 25 32
839 830 834.8682250976562 127 23 30
840 830 835.6123657226562 125 21 30
843 830 836.2804565429688 128 24 31
859 830 839.259765625 126 22 29
862 830 840.0059814453125 129 23 33
875 830 842.24755859375 136 32 43
926 830 855.493408203125 136 30 42
957 830 865.2271118164062 146 29 38
974 830 869.0299072265625 145 25 35
985 830 873.6091918945312 150 30 40
1055 830 918.71923828125 52 58 70
1444 830 1215.2044677734375 182 183 203
1445 830 1216.092529296875 187 188 206
1644 830 1338.1947021484375 194 207 223
1657 830 1346.36474609375 175 181 205
1663 830 1349.0904541015625 165 176 194
1679 830 1359.0946044921875 182 193 213
1681 830 1360.9151611328125 170 180 205
1891 830 1499.892333984375 164 185 206
1917 830 1517.5045166015625 157 181 205
841 831 837.0244750976562 127 23 32
848 831 837.0244750976562 138 32 42
866 831 842.1644897460938 127 22 29
872 831 842.91162109375 130 24 34
879 831 844.407470703125 135 31 42
881 831 844.407470703125 130 26 37
885 831 845.1561889648438 113 27 40
892 831 846.6552124023438 132 91 107
975 831 870.4395141601562 149 29 39
976 831 871.2014770507812 148 27 36
978 831 872.7267456054688 147 27 36
986 831 875.018310546875 151 31 41
1056 831 920.1222534179688 55 63 76
1445 831 1216.552490234375 176 174 196
1680 831 1360.4190673828125 175 191 207
1681 831 1361.3291015625 181 196 217
1704 831 1375.9073486328125 177 182 211
1705 831 1376.819580078125 172 179 205
1707 831 1378.644287109375 170 177 203
1711 831 1380.469482421875 180 187 215
1712 831 1381.38232421875 171 181 206
1919 831 1519.733154296875 158 187 205
850 832 839.18115234375 130 25 32
875 832 843.5762939453125 132 25 35
876 832 844.3234252929688 129 23 33
878 832 844.3234252929688 135 29 39
880 832 844.3234252929688 133 27 37
883 832 844.3234252929688 133 27 37
884 832 845.0709838867188 131 27 38
885 832 845.8191528320312 130 30 42
892 832 847.3169555664062 116 48 63
934 832 859.8237915039062 140 30 43
986 832 875.6631469726562 151 31 41
1466 832 1229.4539794921875 183 181 203
1467 832 1230.3438720703125 177 175 197
1472 832 1233.0146484375 178 179 199
1473 832 1233.9051513671875 181 182 202
1474 832 1234.7958984375 183 179 202
1711 832 1380.8782958984375 177 187 214
1718 832 1384.5291748046875 174 185 207
757 833 822.4183959960938 109 30 36
850 833 839.8488159179688 131 26 33
852 833 839.1048583984375 128 21 31
856 833 840.59326171875 127 20 30
860 833 841.3381958007812 131 24 32
868 833 842.750244140625 129 22 32
879 833 845.7351684570312 130 24 34
884 833 845.7351684570312 131 24 34
885 833 846.4827270507812 133 26 36
895 833 848.7284545898438 112 35 55
902 833 850.2282104492188 154 113 153
928 833 857.0023193359375 127 46 65
978 833 874.0205688476562 147 25 36
1478 833 1236.14111328125 179 176 197
1707 833 1379.463623046875 179 196 216
1743 833 1401.385009765625 176 186 211
771 834 824.568359375 121 22 27
862 834 843.4957275390625 132 25 33
863 834 842.750244140625 131 24 32
868 834 842.750244140625 130 23 31
883 834 845.653564453125 130 23 33
884 834 846.4000244140625 135 25 34
885 834 847.14697265625 134 24 33
887 834 848.6424560546875 135 28 36
889 834 848.6424560546875 138 32 42
890 834 847.14697265625 133 27 37
901 834 850.1400146484375 123 58 88
902 834 850.8895263671875 127 67 103
952 834 865.66796875 136 24 36
1478 834 1236.59619140625 180 176 201
1500 834 1249.969970703125 185 186 206
1501 834 1250.8629150390625 180 181 201
1750 834 1406.3634033203125 167 182 205
1752 834 1408.19384765625 172 187 208
1753 834 1409.1092529296875 160 172 196
1760 834 1412.7720947265625 161 166 198
1761 834 1413.6881103515625 150 155 187
862 835 842.6731567382812 130 23 31
868 835 843.41748046875 128 21 29
878 835 846.3197021484375 127 22 29
879 835 847.0655517578125 130 25 32
883 835 846.3197021484375 132 25 35
884 835 847.0655517578125 137 27 36
901 835 850.8025512695312 110 28 51
902 835 851.551513671875 114 38 66
904 835 851.551513671875 107 46 79
1501 835 1251.3133544921875 175 173 195
1506 835 1253.9920654296875 180 178 200
1507 835 1254.88525390625 170 168 190
1513 835 1257.56591796875 171 172 192
1515 835 1259.353759765625 185 186 206
1746 835 1404.9373779296875 174 192 214
1752 835 1408.5968017578125 164 183 200
1753 835 1409.511962890625 164 181 201
1760 835 1413.1737060546875 163 172 201
1761 835 1414.0894775390625 163 169 201
1771 835 1421.4193115234375 164 178 204
1778 835 1426.004150390625 157 171 197
764 836 825.9207153320312 123 23 31
774 836 826.6571044921875 121 25 29
783 836 825.9207153320312 124 23 29
862 836 843.341552734375 127 22 29
878 836 846.3197021484375 129 23 33
879 836 847.731689453125 132 28 37
891 836 849.2237548828125 134 27 37
895 836 850.7179565429688 136 32 43
901 836 851.4658203125 123 26 43
937 836 860.4801025390625 120 33 67
945 836 862.7450561523438 139 34 41
1371 836 1175.981689453125 53 60 68
1372 836 1176.8602294921875 60 62 75
1506 836 1254.442138671875 187 185 207
1515 836 1259.802001953125 172 163 192
1523 836 1265.1676025390625 177 175 196
1524 836 1266.0623779296875 176 172 195
1529 836 1268.747802734375 176 177 197
1746 836 1405.3419189453125 184 207 221
1753 836 1409.915283203125 182 208 221
1783 836 1428.237060546875 173 185 211
1785 836 1430.0716552734375 163 181 203
1786 836 1430.9891357421875 158 172 199
718 837 900.4287719726562 88 81 88
785 837 828.070068359375 124 25 30
852 837 840.443359375 132 27 34
878 837 846.9864501953125 131 25 35
884 837 848.3984985351562 141 34 42
900 837 851.3823852539062 130 24 36
902 837 852.8775024414062 130 24 36
904 837 852.8775024414062 131 30 44
907 837 852.8775024414062 126 31 51
908 837 853.6257934570312 126 34 55
909 837 854.3746337890625 118 33 56
946 837 864.1556396484375 132 30 43
1372 837 1177.338134765625 71 75 87
1380 837 1181.7318115234375 151 149 171
1381 837 1182.611083984375 155 156 177
1524 837 1266.509033203125 176 170 196
1536 837 1272.77490234375 174 172 193
1760 837 1413.978759765625 184 205 224
1787 837 1432.304443359375 166 182 207
1803 837 1442.4024658203125 158 172 201
1804 837 1443.3211669921875 168 184 210
1805 837 1444.239990234375 168 184 210
1806 837 1445.1588134765625 168 179 209
1807 837 1446.0777587890625 158 167 200
1813 837 1449.7547607421875 171 185 212
1819 837 1453.4334716796875 158 175 201
1820 837 1454.353515625 155 170 199
1825 837 1456.1937255859375 162 180 204
849 838 841.113525390625 126 22 31
852 838 841.113525390625 128 24 31
884 838 848.3984985351562 133 26 34
902 838 853.5414428710938 131 24 34
912 838 855.7861938476562 122 30 45
926 838 858.786376953125 170 148 186
944 838 863.3018188476562 121 38 64
955 838 866.3220825195312 141 27 37
1371 838 1176.9388427734375 62 67 73
1372 838 1177.816650390625 79 83 95
1373 838 1178.694580078125 93 96 111
1380 838 1182.20849609375 154 151 178
1387 838 1186.605224609375 170 168 190
1388 838 1187.485107421875 161 157 180
1393 838 1190.1260986328125 177 172 195
1550 838 1281.2845458984375 177 173 198
1551 838 1282.181396484375 177 175 197
1552 838 1283.078369140625 180 178 202
1553 838 1283.9754638671875 175 173 197
1558 838 1286.6678466796875 183 184 202
1804 838 1443.7164306640625 176 197 218
1820 838 1454.7457275390625 156 173 199
1826 838 1457.50537109375 164 186 209
1827 838 1458.425537109375 166 188 212
1828 838 1459.345703125 152 169 197
1846 838 1471.318115234375 154 174 199
757 839 823.7717895507812 119 29 38
847 839 841.784423828125 123 28 36
887 839 849.810546875 143 33 42
904 839 854.2060546875 135 25 36
906 839 855.7008666992188 134 27 35
908 839 854.9531860351562 138 28 39
913 839 857.19775390625 135 33 47
918 839 857.19775390625 106 38 59
919 839 857.9469604492188 117 55 76
920 839 858.6967163085938 131 73 95
926 839 859.4468994140625 177 150 181
947 839 864.712646484375 126 42 65
950 839 866.9769287109375 124 25 43
951 839 867.732666015625 126 25 41
995 839 884.8825073242188 137 39 52
1371 839 1177.4183349609375 58 63 69
1373 839 1179.1734619140625 94 97 112
1382 839 1184.443359375 184 181 208
1387 839 1187.0809326171875 181 182 203
1393 839 1190.6002197265625 173 168 191
1397 839 1191.4805908203125 181 177 200
1398 839 1192.361083984375 179 177 198
1565 839 1291.597412109375 167 169 190
1570 839 1293.39404296875 178 181 200
1571 839 1294.29248046875 170 175 194
1828 839 1459.7373046875 164 181 207
1848 839 1473.5494384765625 160 177 205
1849 839 1474.4710693359375 156 171 202
1856 839 1479.080810546875 154 169 198
1862 839 1482.7703857421875 163 179 205
1863 839 1483.6929931640625 157 171 200
785 840 830.101806640625 126 26 34
901 840 853.4594116210938 138 28 37
903 840 855.617919921875 135 25 34
912 840 857.1126098632812 139 29 40
945 840 865.369873046875 153 99 135
954 840 869.1432495117188 138 33 47
956 840 868.3875732421875 137 30 40
957 840 869.1432495117188 140 30 41
962 840 869.1432495117188 147 33 43
965 840 871.4132080078125 150 33 42
1413 840 1201.647216796875 182 178 203
1571 840 1294.731689453125 170 170 198
1588 840 1305.5213623046875 178 180 201
1589 840 1306.4215087890625 176 177 198
1849 840 1474.859375 163 179 205
1863 840 1484.078857421875 154 169 198
1873 840 1490.5384521484375 157 170 204
1874 840 1491.461669921875 163 178 207
866 841 844.609375 127 26 34
871 841 846.8352661132812 130 23 31
876 841 848.3218994140625 128 22 32
885 841 849.810546875 141 31 40
902 841 854.871337890625 142 31 40
925 841 860.0209350585938 123 62 78
927 841 861.5195922851562 133 86 106
951 841 867.534423828125 142 73 102
955 841 868.28857421875 123 29 43
956 841 869.0431518554688 123 27 39
960 841 870.5538330078125 137 27 40
978 841 876.6162109375 146 26 36
985 841 878.1366577148438 152 32 41
1371 841 1177.8985595703125 62 65 72
1373 841 1179.6529541015625 85 87 102
1414 841 1203.0003662109375 180 178 202
1419 841 1205.6470947265625 179 177 201
1429 841 1210.06201171875 176 170 198
1430 841 1210.945556640625 175 169 195
1431 841 1211.8292236328125 169 160 187
1588 841 1305.95751953125 182 180 204
1589 841 1306.8572998046875 174 170 197
1603 841 1314.9620361328125 171 175 200
1604 841 1315.8631591796875 173 180 199
1606 841 1317.6661376953125 188 197 214
1607 841 1318.5677490234375 180 189 206
1863 841 1484.4652099609375 164 181 207
1882 841 1497.3861083984375 170 187 213
1883 841 1498.3096923828125 161 178 204
878 842 848.9906005859375 129 22 30
883 842 848.9906005859375 136 26 35
916 842 859.2723388671875 136 29 39
922 842 860.0209350585938 129 27 40
923 842 859.1885986328125 128 30 43
925 842 860.6840209960938 121 35 48
957 842 870.4539184570312 131 50 67
958 842 869.6994018554688 119 30 48
977 842 876.5078735351562 149 32 41
1424 842 1208.7650146484375 182 187 209
1445 842 1220.2557373046875 179 177 199
1603 842 1315.395751953125 173 170 201
1604 842 1316.2967529296875 174 174 202
1605 842 1317.19775390625 173 175 200
1606 842 1318.0989990234375 172 174 199
1612 842 1321.705322265625 168 174 196
1613 842 1322.6072998046875 162 168 190
1618 842 1325.31396484375 173 179 201
1619 842 1326.2164306640625 174 179 201
1624 842 1328.0218505859375 182 191 208
1625 842 1328.9248046875 177 184 203
1626 842 1329.8277587890625 174 176 201
1918 842 1521.81005859375 155 169 195
1919 842 1522.736083984375 153 165 191
881 843 850.40283203125 130 23 29
883 843 849.659912109375 139 29 38
884 843 850.40283203125 131 24 32
885 843 851.1463012695312 132 25 33
976 843 876.4017333984375 150 34 43
981 843 878.6768188476562 148 31 40
1000 843 887.8203735351562 123 26 37
1445 843 1220.7215576171875 184 182 204
1446 843 1221.6063232421875 180 178 202
1613 843 1323.039306640625 164 170 196
1624 843 1328.4521484375 176 182 204
1626 843 1330.2574462890625 169 166 195
885 844 851.8151245117188 131 24 32
886 844 852.5585327148438 131 21 32
889 844 853.3024291992188 131 21 30
892 844 853.3024291992188 133 26 34
893 844 854.0468139648438 133 23 32
926 844 862.095703125 133 25 38
972 844 876.2979125976562 150 40 51
976 844 877.0547485351562 144 30 40
977 844 877.8120727539062 140 24 35
997 844 886.1743774414062 140 34 46
999 844 887.7009887695312 125 23 34
1466 844 1233.586669921875 176 170 196
1468 844 1235.3607177734375 179 170 199
1473 844 1238.0230712890625 179 175 198
1642 844 1340.6241455078125 176 180 205
1643 844 1341.5281982421875 168 173 195
1644 844 1342.4324951171875 171 173 198
1645 844 1343.3369140625 175 177 202
1649 844 1345.1461181640625 175 182 201
1650 844 1346.0509033203125 171 177 199
1655 844 1348.76611328125 182 191 208
1656 844 1349.67138671875 183 188 207
1657 844 1350.576904296875 171 176 196
718 845 902.8599243164062 78 71 78
720 845 904.44677734375 108 102 106
876 845 851.0006103515625 126 22 29
878 845 851.0006103515625 130 26 33
883 845 851.0006103515625 127 20 28
884 845 851.7423095703125 130 23 31
885 845 852.484619140625 130 23 31
889 845 853.970703125 130 20 29
890 845 854.714599609375 136 29 37
896 845 855.4589233398438 134 22 34
906 845 857.6951904296875 138 27 34
936 845 865.004638671875 126 47 68
937 845 866.4161987304688 128 54 77
938 845 867.16552734375 122 53 81
975 845 876.9520874023438 141 33 46
976 845 877.7083740234375 137 27 40
977 845 878.4651489257812 142 30 42
981 845 879.9801025390625 148 32 45
986 845 881.4970092773438 153 37 48
1114 845 965.22119140625 78 46 59
1371 845 1178.86083984375 69 74 80
1466 845 1234.049072265625 181 177 202
1473 845 1238.4837646484375 180 176 201
1650 845 1346.4769287109375 171 175 200
1656 845 1350.0963134765625 170 172 195
1657 845 1351.00146484375 167 167 191
1662 845 1352.812255859375 170 179 196
1663 845 1353.7178955078125 169 176 195
1664 845 1354.62353515625 170 170 196
718 846 903.4694213867188 80 75 81
880 846 851.671875 129 24 31
882 846 853.1547241210938 132 25 31
884 846 852.4130249023438 128 21 29
903 846 857.6159057617188 134 24 33
905 846 857.6159057617188 138 27 34
922 846 862.67724609375 139 28 35
927 846 864.1712646484375 145 34 43
937 846 866.4161987304688 125 32 50
970 846 876.0970458984375 140 56 82
974 846 876.8517456054688 130 33 52
978 846 879.8755493164062 146 34 46
985 846 881.390380859375 157 37 49
998 846 888.2308349609375 129 27 41
999 846 888.9932250976562 125 23 36
1092 846 949.821533203125 82 46 58
1098 846 954.6041259765625 82 54 69
1109 846 961.8035278320312 87 60 75
1113 846 965.012939453125 88 61 76
1114 846 965.8162231445312 86 59 74
1120 846 968.228271484375 69 51 63
1372 846 1180.218994140625 68 68 80
1679 846 1364.1092529296875 167 177 202
1680 846 1365.01611328125 167 182 203
1681 846 1365.923095703125 162 179 199
1682 846 1366.830322265625 155 170 191
777 847 831.4066162109375 119 22 29
891 847 854.567138671875 127 20 26
899 847 857.5389404296875 131 21 30
902 847 857.5389404296875 135 23 35
905 847 858.2831420898438 134 23 30
937 847 867.0789794921875 136 30 44
977 847 879.7732543945312 131 36 58
983 847 880.5293579101562 150 33 49
985 847 882.0430908203125 152 35 51
1078 847 941.7011108398438 76 43 54
1081 847 944.0762939453125 77 43 57
1088 847 947.2486572265625 83 45 58
1089 847 948.042724609375 84 48 60
1090 847 948.837158203125 82 48 62
