ply
format ascii 1.0
element vertex 1280
property float x
property float y
property float z
property float red
property float green
property float blue
end_header
1523 18 1122.60986328125 169 168 202
1524 18 1123.609375 165 166 197
1525 18 1124.6087646484375 165 170 200
1528 18 1125.6082763671875 161 175 201
1529 18 1126.6077880859375 175 193 213
1530 18 1127.607177734375 167 190 206
1531 18 1128.606689453125 170 193 207
1534 18 1129.6060791015625 178 193 214
1535 18 1130.6055908203125 175 190 209
1536 18 1131.6051025390625 173 188 209
1573 18 1155.6923828125 168 180 206
1574 18 1156.69189453125 174 186 208
1575 18 1157.6912841796875 170 187 205
1576 18 1158.690673828125 175 197 211
1581 18 1161.6888427734375 177 194 212
1582 18 1162.688232421875 186 203 219
1895 18 1382.2174072265625 149 169 196
1896 18 1383.216552734375 134 155 184
1897 18 1384.2156982421875 145 166 193
1898 18 1385.21484375 143 160 188
921 19 780.09228515625 105 125 136
925 19 781.0921630859375 120 144 154
970 19 802.0399169921875 151 169 183
971 19 803.0398559570312 134 152 166
992 19 812.015380859375 126 139 155
993 19 813.015380859375 133 146 162
1038 19 834.0006103515625 137 154 170
1039 19 835.0006103515625 140 157 173
1040 19 836.0006103515625 130 146 162
1045 19 839.0006103515625 156 172 188
1046 19 840.0006103515625 165 181 196
1069 19 851.0006103515625 143 159 175
1070 19 852.0006103515625 145 162 178
1073 19 852.0006103515625 168 183 202
1074 19 853.0006103515625 154 167 186
1075 19 854.0006103515625 153 166 185
1151 19 894.0357666015625 148 160 182
1152 19 895.0357666015625 161 174 193
1153 19 896.0357055664062 156 168 190
1281 19 969.186279296875 151 166 187
1282 19 970.18603515625 161 176 197
1283 19 971.1858520507812 179 196 214
1284 19 972.1856689453125 178 195 213
1316 19 990.244384765625 165 180 201
1317 19 991.244140625 175 190 209
1318 19 992.243896484375 173 188 207
1321 19 992.243896484375 171 186 207
1322 19 993.24365234375 168 185 201
1323 19 994.243408203125 163 180 196
1372 19 1024.330078125 173 185 207
1373 19 1025.3297119140625 174 186 208
1374 19 1026.329345703125 163 175 197
1418 19 1053.3992919921875 175 186 208
1419 19 1054.39892578125 183 195 217
1420 19 1055.3985595703125 179 194 213
1453 19 1076.4757080078125 168 178 203
1522 19 1121.577880859375 161 161 195
1523 19 1122.577392578125 188 188 222
1524 19 1123.576904296875 190 195 224
1525 19 1124.576416015625 181 188 216
1528 19 1125.5758056640625 163 177 203
1529 19 1126.5753173828125 186 204 224
1530 19 1127.5748291015625 176 199 213
1531 19 1128.5743408203125 163 185 199
1573 19 1155.658203125 167 179 205
1574 19 1156.65771484375 167 182 203
1575 19 1157.6571044921875 182 199 215
1576 19 1158.656494140625 176 200 212
1895 19 1382.17578125 153 172 202
1896 19 1383.1749267578125 156 180 206
1897 19 1384.174072265625 153 177 203
1898 19 1385.1732177734375 155 175 202
911 20 775.1090087890625 43 70 79
916 20 777.1087646484375 92 108 123
917 20 778.1085815429688 104 120 135
920 20 779.1084594726562 120 136 149
921 20 780.1083374023438 133 149 162
924 20 780.1083374023438 134 154 163
925 20 781.1082153320312 133 151 163
926 20 782.1080322265625 131 149 163
960 20 797.0508422851562 132 141 158
991 20 811.022216796875 139 152 169
992 20 812.0221557617188 152 168 181
993 20 813.0221557617188 150 166 179
1039 20 835.0023803710938 152 172 183
1040 20 836.0023803710938 141 159 173
1064 20 848.0 125 142 162
1065 20 849.0 149 166 186
1066 20 850.0 147 164 180
1068 20 850.0 148 165 181
1069 20 851.0 157 175 189
1070 20 852.0 159 177 191
1073 20 852.0 161 176 195
1074 20 853.0 152 168 184
1113 20 873.0091552734375 149 164 185
1114 20 874.0091552734375 151 167 183
1115 20 875.0091552734375 152 168 184
1151 20 894.0274047851562 166 181 200
1152 20 895.02734375 165 181 197
1273 20 964.1680297851562 166 181 202
1274 20 965.1678466796875 170 185 206
1275 20 966.1676635742188 167 182 203
1281 20 969.1671752929688 154 169 190
1311 20 987.223388671875 170 182 204
1312 20 988.22314453125 178 191 210
1313 20 989.222900390625 178 193 212
1316 20 990.2227172851562 167 182 201
1317 20 991.2224731445312 179 194 213
1318 20 992.2222290039062 179 192 211
1366 20 1021.3060302734375 165 172 198
1367 20 1022.3057250976562 171 182 204
1368 20 1023.305419921875 173 185 207
1371 20 1023.305419921875 169 181 203
1372 20 1024.30517578125 181 197 213
1373 20 1025.3048095703125 176 192 208
1374 20 1026.3045654296875 165 177 199
1405 20 1045.375 161 173 195
1406 20 1046.3746337890625 161 171 196
1418 20 1053.3721923828125 168 180 202
1419 20 1054.371826171875 180 192 214
1447 20 1073.44775390625 166 178 200
1450 20 1073.44775390625 162 172 197
1451 20 1074.447265625 175 187 209
1452 20 1075.4468994140625 181 193 215
1453 20 1076.4464111328125 181 193 215
1522 20 1121.5462646484375 163 170 198
1523 20 1122.5457763671875 182 189 217
1524 20 1123.5452880859375 183 195 217
1525 20 1124.5447998046875 168 183 204
1566 20 1151.6270751953125 167 182 205
1572 20 1154.62548828125 171 183 207
1573 20 1155.625 164 176 200
1574 20 1156.6243896484375 172 187 210
1576 20 1158.623291015625 168 187 204
1631 20 1194.738525390625 153 164 192
1685 20 1231.822265625 161 175 204
1686 20 1232.821533203125 161 178 204
1687 20 1233.8209228515625 166 183 209
1688 20 1234.8201904296875 161 178 204
1750 20 1277.939697265625 176 198 219
1817 20 1326.02001953125 141 165 191
1888 20 1378.13818359375 150 178 202
1889 20 1379.137451171875 137 165 187
1894 20 1381.1357421875 155 175 202
1896 20 1383.1341552734375 152 183 204
1897 20 1384.13330078125 153 184 205
1898 20 1385.1324462890625 151 175 199
917 21 778.1259765625 128 146 158
921 21 780.1256103515625 143 159 172
924 21 780.1256103515625 135 147 163
959 21 796.0628051757812 141 150 167
960 21 797.062744140625 138 147 164
992 21 812.0301513671875 149 165 178
993 21 813.0301513671875 155 171 184
1030 21 831.0054321289062 134 147 164
1031 21 832.0054321289062 140 153 170
1039 21 835.00537109375 154 174 185
1064 21 848.0 137 152 173
1065 21 849.0 151 166 187
1066 21 850.0 151 168 184
1068 21 850.0 153 170 186
1069 21 851.0 161 179 193
1070 21 852.0 162 180 194
1109 21 872.0051879882812 145 157 179
1110 21 873.005126953125 145 157 179
1269 21 962.1502075195312 173 190 210
1270 21 963.1500244140625 166 181 202
1273 21 964.14990234375 172 187 208
1274 21 965.1497192382812 170 185 204
1275 21 966.1495971679688 169 184 203
1311 21 987.20263671875 176 188 210
1312 21 988.202392578125 181 196 215
1313 21 989.2022094726562 179 194 213
1316 21 990.2020263671875 160 175 196
1317 21 991.2017822265625 162 177 196
1361 21 1018.2828979492188 157 167 192
1362 21 1019.2825927734375 164 179 200
1363 21 1020.2822875976562 159 174 195
1366 21 1021.2820434570312 169 179 204
1367 21 1022.28173828125 176 187 209
1368 21 1023.281494140625 178 193 212
1371 21 1023.281494140625 172 184 206
1372 21 1024.28125 177 193 209
1373 21 1025.2808837890625 165 181 197
1403 21 1043.349365234375 170 180 205
1404 21 1044.34912109375 170 182 204
1405 21 1045.3487548828125 162 174 196
1406 21 1046.348388671875 157 167 192
1446 21 1072.419677734375 170 181 203
1447 21 1073.4193115234375 177 189 211
1450 21 1073.4193115234375 177 189 213
1451 21 1074.4189453125 184 196 218
1452 21 1075.4185791015625 181 196 215
1453 21 1076.4180908203125 174 187 206
1522 21 1121.5155029296875 164 174 201
1523 21 1122.5150146484375 170 182 206
1557 21 1144.59814453125 163 173 200
1558 21 1145.59765625 170 182 206
1559 21 1146.59716796875 173 185 209
1560 21 1147.5966796875 174 184 209
1685 21 1231.7861328125 165 181 207
1686 21 1232.7855224609375 164 184 208
1688 21 1234.7841796875 171 193 216
1749 21 1276.9024658203125 165 183 207
1750 21 1277.90185546875 169 190 211
1751 21 1278.901123046875 171 192 211
1752 21 1279.900390625 163 184 205
1882 21 1374.1011962890625 155 175 202
1887 21 1377.0987548828125 147 173 198
1888 21 1378.0980224609375 150 181 202
1889 21 1379.09716796875 147 178 198
1890 21 1380.0963134765625 150 177 198
1894 21 1381.0955810546875 149 169 196
1895 21 1382.0947265625 157 181 207
1896 21 1383.093994140625 153 184 205
1897 21 1384.09326171875 153 184 204
1898 21 1385.0924072265625 148 170 193
916 22 777.144775390625 137 157 168
917 22 778.1445922851562 138 158 167
918 22 779.1444091796875 138 156 168
952 22 794.076171875 127 140 156
953 22 795.0761108398438 127 140 157
955 22 795.0761108398438 126 137 155
956 22 796.0759887695312 134 147 163
959 22 796.0759887695312 148 162 175
960 22 797.075927734375 149 163 176
982 22 807.0396728515625 132 145 162
983 22 808.0396118164062 123 139 155
988 22 811.0394287109375 146 162 177
1029 22 830.0096435546875 139 154 173
1030 22 831.0096435546875 149 165 181
1031 22 832.0096435546875 144 160 176
1064 22 848.0006103515625 139 154 173
1065 22 849.0006103515625 166 181 200
1066 22 850.0006103515625 157 174 190
1105 22 870.0023193359375 147 162 183
1106 22 871.0023193359375 152 165 184
1109 22 872.0023193359375 158 170 192
1110 22 873.0023193359375 160 173 192
1139 22 887.0140991210938 149 164 185
1140 22 888.0140991210938 148 165 185
1141 22 889.0140380859375 135 152 172
1263 22 958.1336059570312 153 169 194
1264 22 959.1334838867188 165 181 204
1265 22 960.13330078125 163 180 200
1273 22 964.1327514648438 176 188 210
1274 22 965.1326293945312 174 187 206
1311 22 987.182861328125 174 186 208
1312 22 988.1826782226562 170 183 202
1356 22 1015.2605590820312 157 163 189
1357 22 1016.2603149414062 162 169 195
1358 22 1017.2600708007812 162 169 195
1361 22 1018.259765625 154 166 190
1362 22 1019.259521484375 175 192 210
1363 22 1020.25927734375 173 192 209
1366 22 1021.259033203125 167 179 201
1367 22 1022.2587890625 175 187 209
1368 22 1023.258544921875 175 190 209
1398 22 1041.3245849609375 162 174 198
1399 22 1042.3243408203125 170 182 206
1400 22 1043.323974609375 163 173 200
1403 22 1043.323974609375 179 190 212
1404 22 1044.32373046875 179 194 213
1405 22 1045.3233642578125 173 188 207
1406 22 1046.3231201171875 156 168 192
1407 22 1047.32275390625 167 179 201
1441 22 1069.393310546875 177 187 212
1442 22 1070.3929443359375 169 180 202
1445 22 1071.392578125 170 181 203
1446 22 1072.3922119140625 184 197 216
1447 22 1073.391845703125 178 194 210
1450 22 1073.391845703125 174 186 208
1451 22 1074.3914794921875 178 193 212
1452 22 1075.39111328125 179 195 211
1453 22 1076.3907470703125 167 180 199
1506 22 1110.490478515625 172 177 206
1507 22 1111.489990234375 171 178 204
1508 22 1112.489501953125 165 175 200
1557 22 1144.5662841796875 167 179 203
1558 22 1145.5657958984375 176 191 210
1559 22 1146.5653076171875 183 200 216
1560 22 1147.5648193359375 181 198 214
1680 22 1229.751953125 165 187 210
1687 22 1233.74951171875 171 198 215
1750 22 1277.8646240234375 159 173 199
1751 22 1278.8638916015625 151 165 191
1879 22 1371.0638427734375 143 158 187
1880 22 1372.06298828125 141 156 187
1881 22 1373.062255859375 152 172 199
1882 22 1374.0615234375 161 183 207
1887 22 1377.0592041015625 152 178 201
1888 22 1378.0584716796875 149 180 200
1889 22 1379.0576171875 162 193 213
1890 22 1380.056884765625 158 186 207
903 23 771.166015625 52 82 93
904 23 772.165771484375 55 84 98
917 23 778.1644897460938 135 153 165
951 23 793.0907592773438 127 140 156
952 23 794.0906982421875 127 143 158
953 23 795.090576171875 130 146 161
955 23 795.090576171875 147 160 176
956 23 796.0904541015625 149 162 178
978 23 806.0502319335938 121 137 153
983 23 808.0501098632812 138 151 168
1029 23 830.0150756835938 144 159 178
1030 23 831.0150146484375 155 171 187
1031 23 832.0150146484375 153 169 185
1064 23 848.0023803710938 143 158 177
1065 23 849.0023803710938 155 170 189
1102 23 869.0005493164062 156 171 190
1105 23 870.0005493164062 161 173 195
1106 23 871.0005493164062 158 171 190
1135 23 886.009033203125 149 164 183
1136 23 887.009033203125 150 165 184
1139 23 887.009033203125 161 176 197
1140 23 888.009033203125 148 165 185
1141 23 889.0089721679688 139 156 176
1263 23 958.117431640625 155 171 196
1264 23 959.1173095703125 167 183 206
1265 23 960.1171875 168 185 205
1270 23 963.1168212890625 166 181 202
1355 23 1014.2386474609375 156 163 191
1356 23 1015.2384033203125 173 180 206
1357 23 1016.2381591796875 181 188 214
1358 23 1017.2379150390625 178 189 211
1361 23 1018.2376708984375 169 181 205
1362 23 1019.2374877929688 183 202 219
1363 23 1020.2372436523438 179 198 213
1366 23 1021.2369995117188 169 181 203
1367 23 1022.2367553710938 172 184 206
1398 23 1041.3001708984375 169 181 205
1399 23 1042.2998046875 179 191 215
1400 23 1043.299560546875 171 181 208
1403 23 1043.299560546875 186 197 219
1404 23 1044.29931640625 178 193 212
1405 23 1045.2989501953125 162 177 196
1439 23 1067.3673095703125 160 165 194
1440 23 1068.366943359375 177 184 210
1441 23 1069.3665771484375 185 195 220
1442 23 1070.3663330078125 189 200 222
1445 23 1071.365966796875 172 183 205
1446 23 1072.3656005859375 186 199 216
1447 23 1073.365234375 172 188 204
1450 23 1073.365234375 175 187 209
1451 23 1074.3648681640625 164 177 196
1502 23 1109.4615478515625 165 170 199
1505 23 1109.4615478515625 165 166 197
1506 23 1110.461181640625 178 185 213
1507 23 1111.460693359375 180 192 216
1508 23 1112.4603271484375 181 193 215
1557 23 1144.5352783203125 178 190 214
1558 23 1145.5347900390625 178 194 210
1559 23 1146.5343017578125 178 196 210
1560 23 1147.533935546875 181 198 214
1618 23 1186.64111328125 163 175 201
1670 23 1221.72216796875 156 167 199
1671 23 1222.7215576171875 161 172 204
1672 23 1223.720947265625 153 164 194
1673 23 1224.7203369140625 155 169 198
1674 23 1225.7198486328125 150 165 194
1675 23 1226.71923828125 163 178 207
1679 23 1228.718017578125 171 191 216
1879 23 1371.0247802734375 153 170 198
1880 23 1372.0240478515625 159 176 204
1881 23 1373.0233154296875 170 190 217
1882 23 1374.0225830078125 163 185 208
1883 23 1375.0218505859375 152 177 199
1887 23 1377.0203857421875 151 176 198
1888 23 1378.0196533203125 152 179 200
1889 23 1379.018798828125 155 183 204
1890 23 1380.01806640625 144 169 191
903 24 771.1873779296875 73 103 114
904 24 772.1871337890625 82 110 121
948 24 792.106689453125 127 143 159
949 24 793.1065673828125 131 147 163
952 24 794.1064453125 146 164 178
955 24 795.1062622070312 145 161 174
978 24 806.06201171875 146 162 178
983 24 808.0618896484375 140 156 171
1100 24 867.0 141 156 177
1101 24 868.0 150 165 186
1102 24 869.0 160 173 192
1132 24 885.0050659179688 143 160 178
1134 24 885.0050659179688 145 160 181
1135 24 886.0050659179688 160 172 194
1179 24 910.0269165039062 154 171 189
1263 24 958.102294921875 162 178 201
1264 24 959.1021728515625 173 190 210
1265 24 960.10205078125 167 184 204
1355 24 1014.2174072265625 155 165 190
1356 24 1015.2172241210938 172 184 206
1357 24 1016.2169799804688 180 195 214
1358 24 1017.216796875 173 188 207
1361 24 1018.216552734375 170 182 206
1362 24 1019.2163696289062 181 198 214
1363 24 1020.2161254882812 175 192 208
1392 24 1037.2777099609375 154 161 187
1393 24 1038.2774658203125 173 183 208
1394 24 1039.277099609375 172 184 206
1398 24 1041.276611328125 179 196 216
1399 24 1042.2763671875 180 197 217
1400 24 1043.276123046875 164 176 200
1403 24 1043.276123046875 180 191 213
1404 24 1044.27587890625 179 192 211
1439 24 1067.341552734375 167 174 200
1440 24 1068.3411865234375 185 197 219
1441 24 1069.3409423828125 178 193 212
1442 24 1070.340576171875 168 183 202
1445 24 1071.34033203125 184 192 215
1446 24 1072.3399658203125 177 188 208
1500 24 1107.4339599609375 169 174 203
1501 24 1108.43359375 179 186 212
1505 24 1109.4332275390625 166 173 201
1506 24 1110.4327392578125 175 190 211
1507 24 1111.432373046875 180 197 215
1508 24 1112.4320068359375 179 196 214
1541 24 1133.510009765625 156 161 191
1558 24 1145.504638671875 181 194 211
1559 24 1146.5042724609375 181 197 212
1560 24 1147.5037841796875 169 182 201
1618 24 1186.608642578125 177 191 217
1673 24 1224.6865234375 175 191 217
1674 24 1225.6859130859375 169 189 213
1675 24 1226.6854248046875 175 195 219
1880 24 1371.98583984375 158 178 203
1881 24 1372.985107421875 166 186 211
1882 24 1373.984375 156 176 200
894 25 767.211181640625 48 65 72
896 25 769.2106323242188 44 74 76
897 25 770.2103881835938 51 85 87
899 25 770.2103881835938 57 90 97
900 25 771.2100830078125 77 105 116
903 25 771.2100830078125 100 130 138
904 25 772.2098388671875 120 147 154
948 25 792.1237182617188 138 154 170
949 25 793.1235961914062 138 154 170
953 25 795.123291015625 135 153 165
974 25 804.0752563476562 133 149 164
978 25 806.0750732421875 151 167 183
982 25 807.074951171875 153 169 185
1049 25 840.009521484375 140 155 174
1050 25 841.009521484375 153 166 183
1100 25 867.0 149 164 183
1130 25 883.0022583007812 149 164 183
1131 25 884.0022583007812 155 170 189
1132 25 885.0022583007812 147 164 182
1134 25 885.0022583007812 162 174 198
1135 25 886.0022583007812 163 175 199
1294 25 977.1309814453125 181 193 215
1355 25 1014.1972045898438 159 170 192
1356 25 1015.197021484375 175 190 209
1357 25 1016.1968383789062 181 198 214
1358 25 1017.1966552734375 168 183 202
1388 25 1035.2554931640625 167 177 202
1389 25 1036.2552490234375 166 176 201
1392 25 1037.2550048828125 168 176 199
1393 25 1038.2547607421875 191 202 224
1394 25 1039.2545166015625 184 197 216
1398 25 1041.2540283203125 181 196 217
1399 25 1042.2537841796875 179 196 216
1439 25 1067.3167724609375 168 175 201
1440 25 1068.31640625 188 200 222
1441 25 1069.316162109375 181 196 215
1442 25 1070.3157958984375 169 184 205
1495 25 1104.4075927734375 169 174 203
1496 25 1105.4071044921875 167 177 202
1500 25 1107.4063720703125 176 183 211
1501 25 1108.406005859375 189 199 224
1502 25 1109.4056396484375 188 200 222
1506 25 1110.4052734375 191 206 227
1541 25 1133.48046875 170 175 204
1542 25 1134.4801025390625 170 175 204
1543 25 1135.4796142578125 170 177 205
890 26 766.235595703125 47 61 70
894 26 767.2352905273438 61 81 90
895 26 768.2349853515625 59 84 91
896 26 769.2346801757812 59 90 95
900 26 771.2340698242188 113 138 145
903 26 771.2340698242188 126 158 157
904 26 772.2337646484375 129 157 160
948 26 792.1420288085938 140 158 172
949 26 793.141845703125 142 158 174
970 26 802.0897827148438 125 138 155
971 26 803.0896606445312 138 151 167
974 26 804.0895385742188 153 169 184
1015 26 823.0388793945312 135 148 167
1016 26 824.038818359375 135 148 167
1045 26 839.014892578125 142 152 177
1049 26 840.014892578125 150 167 185
1050 26 841.014892578125 157 173 188
1125 26 880.0005493164062 137 154 172
1126 26 881.0005493164062 160 179 194
1127 26 882.0005493164062 148 167 182
1130 26 883.0005493164062 151 168 186
1131 26 884.0005493164062 169 186 204
1132 26 885.0005493164062 167 184 202
1250 26 950.0758056640625 171 183 207
1251 26 951.07568359375 172 187 208
1252 26 952.0756225585938 151 166 189
1289 26 975.1153564453125 174 186 208
1292 26 975.1153564453125 174 187 206
1293 26 976.115234375 182 197 216
1294 26 977.1151123046875 175 190 209
1341 26 1005.1795654296875 153 160 186
1342 26 1006.1793823242188 154 166 188
1343 26 1007.17919921875 160 172 194
1355 26 1014.177978515625 163 173 198
1356 26 1015.1777954101562 165 177 199
1387 26 1034.2340087890625 169 179 204
1388 26 1035.2337646484375 175 188 207
1389 26 1036.2335205078125 171 184 203
1392 26 1037.2333984375 183 194 214
1393 26 1038.233154296875 188 201 218
1394 26 1039.23291015625 177 190 209
1495 26 1104.380859375 174 184 209
1496 26 1105.3804931640625 180 195 214
1500 26 1107.3797607421875 179 191 213
1501 26 1108.37939453125 181 196 217
1502 26 1109.379150390625 171 186 207
1535 26 1130.4530029296875 160 165 195
1536 26 1131.45263671875 171 181 208
1540 26 1132.4521484375 180 190 215
1541 26 1133.4517822265625 182 194 216
1542 26 1134.451416015625 178 193 214
1543 26 1135.4510498046875 178 193 214
1544 26 1136.4505615234375 165 177 201
1728 26 1262.7322998046875 167 183 208
890 27 766.2610473632812 64 83 90
894 27 767.2607421875 88 108 119
895 27 768.2603759765625 87 111 121
896 27 769.260009765625 84 113 121
900 27 771.2593383789062 122 145 153
904 27 772.259033203125 132 156 160
938 27 787.16259765625 128 139 159
939 27 788.1624145507812 133 144 164
970 27 802.1053466796875 143 156 173
971 27 803.105224609375 147 160 176
1011 27 822.0492553710938 140 151 169
1012 27 823.0491943359375 137 150 167
1014 27 822.0492553710938 141 152 172
1015 27 823.0491943359375 147 160 179
1016 27 824.0491333007812 154 167 184
1041 27 837.021484375 144 157 176
1045 27 839.0214233398438 150 160 185
1046 27 840.0214233398438 152 165 184
1049 27 840.0214233398438 153 170 188
1050 27 841.0214233398438 164 182 196
1090 27 862.0023193359375 154 167 186
1125 27 880.0 144 163 180
1126 27 881.0 164 183 198
1168 27 904.0088500976562 149 166 186
1246 27 949.063720703125 161 173 195
1247 27 950.0636596679688 168 180 202
1249 27 949.063720703125 161 173 197
1250 27 950.0636596679688 179 194 215
1251 27 951.0635986328125 175 190 209
1252 27 952.0635375976562 162 177 198
1284 27 972.100830078125 167 182 203
1287 27 973.1007080078125 172 183 205
1288 27 974.1005859375 181 194 213
1289 27 975.1005249023438 177 192 211
1292 27 975.1005249023438 169 184 203
1341 27 1005.1611938476562 165 172 198
1342 27 1006.1610107421875 174 186 208
1343 27 1007.160888671875 177 189 211
1344 27 1008.1607055664062 165 175 200
1386 27 1033.21337890625 160 172 194
1387 27 1034.2132568359375 174 186 208
1388 27 1035.2130126953125 181 196 215
1389 27 1036.2127685546875 169 184 203
1392 27 1037.212646484375 169 180 200
1486 27 1097.3572998046875 172 182 209
1487 27 1098.35693359375 164 171 199
1494 27 1103.3553466796875 168 175 201
1495 27 1104.35498046875 184 194 219
1496 27 1105.354736328125 181 198 216
1531 27 1128.4259033203125 161 168 194
1535 27 1130.4251708984375 174 181 209
1536 27 1131.4248046875 186 198 220
1537 27 1132.4244384765625 182 197 218
1540 27 1132.4244384765625 178 190 212
1541 27 1133.424072265625 183 198 217
1542 27 1134.423583984375 180 197 215
1543 27 1135.4232177734375 169 186 204
1724 27 1258.700927734375 165 185 209
1725 27 1259.7003173828125 157 177 201
1852 27 1350.888916015625 143 167 193
1853 27 1351.8883056640625 150 176 201
1854 27 1352.8876953125 153 177 203
887 28 765.2882080078125 54 76 87
896 28 769.2866821289062 114 137 145
897 28 770.2863159179688 126 149 157
900 28 771.2859497070312 132 152 161
938 28 787.18359375 143 156 172
939 28 788.183349609375 143 156 172
970 28 802.1221923828125 141 159 173
971 28 803.1220092773438 142 160 174
1007 28 820.0609741210938 140 151 169
1008 28 821.0609130859375 140 148 167
1011 28 822.0608520507812 153 164 182
1012 28 823.0607299804688 153 166 183
1014 28 822.0608520507812 143 156 173
1015 28 823.0607299804688 156 169 186
1039 28 835.0293579101562 140 153 170
1040 28 836.029296875 140 156 172
1041 28 837.029296875 146 162 178
1045 28 839.0291748046875 161 176 195
1046 28 840.0291748046875 163 179 195
1089 28 861.0052490234375 160 175 194
1090 28 862.0052490234375 161 177 193
1242 28 947.0527954101562 164 176 198
1245 28 948.052734375 168 183 204
1246 28 949.0526733398438 171 186 205
1247 28 950.0526123046875 171 186 205
1249 28 949.0526733398438 171 186 207
1250 28 950.0526123046875 179 194 213
1251 28 951.0525512695312 177 193 209
1252 28 952.052490234375 169 182 201
1281 28 969.0872192382812 151 166 189
1282 28 970.0870971679688 168 180 204
1283 28 971.0870361328125 176 191 212
1284 28 972.0869140625 175 192 210
1287 28 973.0868530273438 171 184 203
1288 28 974.0867309570312 176 189 208
1289 28 975.086669921875 177 190 209
1341 28 1005.143798828125 162 173 195
1342 28 1006.1436157226562 177 192 211
1343 28 1007.1434936523438 178 194 210
1344 28 1008.1433715820312 175 186 206
1386 28 1033.193603515625 162 177 198
1387 28 1034.193359375 168 183 202
1388 28 1035.1932373046875 178 194 210
1418 28 1053.2510986328125 171 177 201
1419 28 1054.2509765625 172 183 203
1420 28 1055.250732421875 179 194 213
1421 28 1056.25048828125 165 180 199
1487 28 1098.3319091796875 167 177 202
1495 28 1104.330078125 174 184 209
1529 28 1126.3995361328125 172 179 207
1530 28 1127.399169921875 169 179 204
1531 28 1128.39892578125 180 192 214
1534 28 1129.3985595703125 163 175 199
1535 28 1130.398193359375 180 195 216
1536 28 1131.3978271484375 184 203 217
1537 28 1132.3974609375 173 192 206
1540 28 1132.3974609375 172 184 206
1541 28 1133.3970947265625 170 185 206
1542 28 1134.396728515625 170 187 207
1648 28 1206.5675048828125 152 166 193
1649 28 1207.5670166015625 151 165 192
1650 28 1208.5665283203125 165 179 206
1846 28 1347.85498046875 146 163 191
1847 28 1348.8543701171875 153 170 198
1852 28 1350.85302734375 156 182 205
1853 28 1351.8524169921875 153 184 205
1854 28 1352.851806640625 162 193 213
1855 28 1353.8511962890625 165 193 214
884 29 764.3167114257812 58 80 93
896 29 769.3146362304688 138 156 168
938 29 787.205810546875 144 157 173
939 29 788.20556640625 147 163 176
959 29 796.1412963867188 127 140 156
960 29 797.14111328125 132 145 162
970 29 802.1402587890625 142 160 172
1006 29 819.0738525390625 149 162 181
1007 29 820.0737915039062 154 165 185
1008 29 821.0736694335938 162 170 191
1011 29 822.0736083984375 154 165 183
1012 29 823.073486328125 156 169 185
1039 29 835.038330078125 147 160 177
1040 29 836.0382690429688 144 157 174
1237 29 944.0429077148438 166 178 200
1240 29 945.0428466796875 155 167 191
1241 29 946.0427856445312 164 179 200
1242 29 947.0427856445312 179 194 215
1245 29 948.042724609375 163 178 199
1246 29 949.0426635742188 171 187 203
1247 29 950.0426025390625 166 181 200
1281 29 969.0742797851562 146 161 182
1282 29 970.07421875 159 171 193
1283 29 971.0741577148438 181 193 215
1284 29 972.0740966796875 174 189 208
1341 29 1005.1273803710938 173 184 206
1342 29 1006.1272583007812 178 193 212
1343 29 1007.1270751953125 177 193 209
1372 29 1024.17626953125 175 186 208
1373 29 1025.176025390625 169 180 202
1374 29 1026.1759033203125 165 176 198
1418 29 1053.229736328125 170 178 201
1419 29 1054.2296142578125 181 194 213
1420 29 1055.2293701171875 184 201 217
1421 29 1056.2291259765625 168 185 201
1478 29 1092.3094482421875 167 173 199
1479 29 1093.3092041015625 173 179 205
1480 29 1094.3089599609375 171 178 204
1485 29 1096.308349609375 189 206 226
1486 29 1097.30810546875 178 193 214
1487 29 1098.3077392578125 169 179 204
1524 29 1123.3743896484375 155 165 190
1525 29 1124.3740234375 173 183 208
1529 29 1126.3734130859375 182 189 215
1530 29 1127.373046875 183 195 217
1531 29 1128.3726806640625 178 193 212
1534 29 1129.3724365234375 166 181 202
1535 29 1130.3720703125 176 191 210
1536 29 1131.3717041015625 174 193 207
1648 29 1206.5372314453125 159 175 201
1649 29 1207.5367431640625 172 189 215
1650 29 1208.5362548828125 172 190 214
1710 29 1249.640380859375 165 185 209
1711 29 1250.639892578125 176 197 218
1717 29 1254.6378173828125 155 175 199
1845 29 1346.8203125 155 176 203
1846 29 1347.8197021484375 161 181 208
1847 29 1348.819091796875 168 185 213
1852 29 1350.81787109375 153 181 203
1853 29 1351.8172607421875 159 190 210
1854 29 1352.816650390625 166 197 215
1855 29 1353.8160400390625 163 192 210
879 30 762.3470458984375 43 63 70
882 30 762.3470458984375 60 80 89
883 30 763.3465576171875 71 91 100
895 30 768.3442993164062 126 142 155
956 30 796.1607666015625 128 144 159
959 30 796.1607666015625 138 151 168
960 30 797.1605834960938 143 159 174
1007 30 820.0878295898438 151 164 181
1008 30 821.0877075195312 164 177 194
1030 30 831.0487060546875 138 154 170
1031 30 832.0487060546875 143 159 175
1035 30 834.048583984375 154 167 183
1039 30 835.0485229492188 167 180 196
1040 30 836.0484619140625 143 156 173
1111 30 874.0022583007812 145 160 181
1113 30 873.0023193359375 149 165 188
1114 30 874.0022583007812 163 178 197
1115 30 875.0022583007812 159 176 192
1235 30 942.0339965820312 155 170 193
1236 30 943.033935546875 168 183 204
1237 30 944.0338745117188 166 181 200
1238 30 945.0338745117188 165 180 199
1240 30 945.0338745117188 165 180 201
1241 30 946.0338134765625 182 197 216
1242 30 947.0338134765625 173 188 207
1274 30 965.0626831054688 174 191 209
1275 30 966.0626220703125 168 183 202
1281 30 969.0624389648438 156 168 190
1368 30 1023.1583251953125 160 172 194
1369 30 1024.158203125 157 169 191
1372 30 1024.158203125 169 184 203
1373 30 1025.1580810546875 178 193 212
1374 30 1026.1578369140625 176 189 208
1418 30 1053.2093505859375 175 186 208
1419 30 1054.209228515625 183 199 215
1420 30 1055.208984375 181 200 214
1473 30 1089.286865234375 160 170 195
1474 30 1090.28662109375 168 179 201
1478 30 1092.2861328125 176 184 207
1479 30 1093.285888671875 187 198 218
1480 30 1094.28564453125 185 198 217
1481 30 1095.285400390625 172 185 204
1486 30 1097.2847900390625 174 189 210
1523 30 1122.349365234375 169 179 204
1524 30 1123.3489990234375 183 198 219
1525 30 1124.3487548828125 181 198 216
1526 30 1125.348388671875 174 186 210
1529 30 1126.3480224609375 183 195 219
1530 30 1127.3477783203125 179 194 213
1531 30 1128.347412109375 174 189 208
1649 30 1207.50732421875 161 188 207
1713 30 1252.6072998046875 148 164 189
1844 30 1345.786376953125 148 174 199
1845 30 1346.7857666015625 160 184 208
1846 30 1347.7852783203125 167 189 213
1852 30 1350.783447265625 155 181 204
1853 30 1351.7828369140625 154 181 202
1854 30 1352.7823486328125 157 182 204
1855 30 1353.78173828125 153 178 200
1897 30 1383.8677978515625 145 166 195
1898 30 1384.8671875 141 167 192
882 31 762.3778686523438 91 111 120
883 31 763.3773803710938 85 105 114
925 31 781.2560424804688 121 137 153
956 31 796.1815185546875 139 155 170
959 31 796.1815185546875 137 153 169
960 31 797.1812744140625 156 172 188
1029 31 830.0602416992188 135 150 169
1030 31 831.0601806640625 144 160 176
1031 31 832.0601196289062 148 164 180
1035 31 834.0599365234375 158 171 187
1109 31 872.0051879882812 156 173 193
1113 31 873.005126953125 153 168 191
1114 31 874.005126953125 163 180 198
1235 31 942.0260009765625 151 166 187
1236 31 943.0260009765625 174 191 211
1237 31 944.0259399414062 176 193 211
1269 31 962.052001953125 172 184 208
1273 31 964.0518798828125 179 196 214
1274 31 965.0518188476562 177 194 210
1275 31 966.0517578125 173 190 208
1323 31 994.0985717773438 157 169 191
1324 31 995.0985107421875 161 168 194
1364 31 1021.1415405273438 160 167 193
1366 31 1021.1415405273438 154 164 189
1367 31 1022.141357421875 181 193 217
1368 31 1023.1412353515625 182 194 216
1369 31 1024.14111328125 170 182 204
1372 31 1024.14111328125 179 194 213
1373 31 1025.1409912109375 187 203 219
1374 31 1026.140869140625 176 189 208
1405 31 1045.19140625 165 176 198
1406 31 1046.191162109375 164 171 197
1420 31 1055.1895751953125 162 179 195
1473 31 1089.264404296875 175 185 210
1474 31 1090.26416015625 180 192 214
1478 31 1092.263671875 185 196 218
1479 31 1093.263427734375 194 207 226
1480 31 1094.26318359375 181 194 211
1523 31 1122.3248291015625 188 195 221
1524 31 1123.3245849609375 186 201 220
1525 31 1124.32421875 179 196 214
1529 31 1126.3236083984375 177 189 213
1633 31 1196.483154296875 160 175 198
1634 31 1197.4827880859375 160 174 200
1833 31 1336.7576904296875 152 171 201
1834 31 1337.757080078125 157 178 205
1835 31 1338.7564697265625 157 181 207
1836 31 1339.7559814453125 140 164 190
1837 31 1340.75537109375 138 162 190
1838 31 1341.7547607421875 154 180 205
1845 31 1346.7520751953125 159 183 207
1897 31 1383.832763671875 145 166 195
1898 31 1384.8321533203125 155 181 206
874 32 759.41162109375 57 82 87
921 32 780.2826538085938 125 136 154
925 32 781.2822875976562 140 156 171
926 32 782.2819213867188 138 156 170
952 32 794.2039794921875 136 149 166
953 32 795.2037353515625 130 146 161
956 32 796.2034912109375 149 167 179
993 32 813.1205444335938 133 146 163
1029 32 830.0728759765625 132 148 164
1030 32 831.0728149414062 158 174 189
1031 32 832.0726928710938 154 172 186
1072 32 851.02880859375 149 161 183
1073 32 852.0287475585938 150 163 182
1074 32 853.0287475585938 152 167 186
1075 32 854.0286865234375 143 159 175
1105 32 870.0092163085938 147 160 179
1106 32 871.0091552734375 151 166 185
1109 32 872.0091552734375 156 173 191
1110 32 873.0091552734375 164 181 197
1235 32 942.0191040039062 148 163 184
1236 32 943.0191040039062 165 182 202
1237 32 944.01904296875 181 196 215
1264 32 959.042236328125 167 184 204
1266 32 961.0421142578125 170 185 206
1269 32 962.0421142578125 186 201 220
1270 32 963.0420532226562 181 197 213
1273 32 964.0419921875 169 184 203
1274 32 965.0419921875 177 193 209
1322 32 993.0850830078125 169 184 205
1323 32 994.0850219726562 173 188 209
1324 32 995.0848999023438 166 177 199
1361 32 1018.125732421875 161 173 195
1362 32 1019.1256103515625 170 186 202
1363 32 1020.12548828125 172 188 204
1364 32 1021.1253662109375 168 179 199
1366 32 1021.1253662109375 170 182 204
1367 32 1022.125244140625 177 192 211
1368 32 1023.1251220703125 174 189 208
1372 32 1024.125 176 189 208
1403 32 1043.173095703125 172 179 205
1404 32 1044.1728515625 181 196 215
1405 32 1045.1727294921875 172 187 206
1406 32 1046.172607421875 160 171 193
1472 32 1088.2430419921875 166 178 202
1473 32 1089.2427978515625 179 194 215
1474 32 1090.24267578125 174 191 209
1478 32 1092.2421875 180 191 213
1522 32 1121.301513671875 170 177 203
1523 32 1122.3011474609375 183 190 216
1524 32 1123.3009033203125 178 189 211
1632 32 1195.45556640625 164 178 204
1835 32 1338.7232666015625 159 190 211
1836 32 1339.7227783203125 149 177 201
1837 32 1340.72216796875 154 182 206
1838 32 1341.7216796875 158 186 208
1890 32 1379.8006591796875 159 176 202
1895 32 1381.799560546875 149 170 197
1896 32 1382.7989501953125 166 190 214
1897 32 1383.79833984375 161 187 210
1898 32 1384.7978515625 158 184 207
872 33 757.4463500976562 55 89 91
883 33 763.44287109375 132 148 161
884 33 764.4422607421875 136 154 166
917 33 778.3109741210938 124 136 152
918 33 779.3106079101562 127 138 156
948 33 792.2278442382812 125 138 155
949 33 793.2276000976562 138 151 168
952 33 794.227294921875 145 158 175
953 33 795.2269897460938 152 165 181
956 33 796.2267456054688 145 163 175
992 33 812.1385498046875 136 149 166
993 33 813.1383666992188 139 152 169
1030 33 831.0866088867188 163 179 194
1069 33 851.03759765625 147 159 181
1070 33 852.0375366210938 151 162 182
1101 33 868.014404296875 155 167 189
1102 33 869.014404296875 161 169 190
1105 33 870.0143432617188 164 177 196
1106 33 871.0143432617188 169 185 201
1107 33 872.0143432617188 158 174 190
1223 33 935.0133666992188 169 181 205
1224 33 936.0133666992188 165 177 201
1263 33 958.0333862304688 154 169 190
1266 33 961.0333251953125 171 186 205
1270 33 963.033203125 173 189 205
1314 33 990.07275390625 152 167 188
1317 33 991.0726318359375 156 168 192
1318 33 992.0725708007812 176 188 210
1319 33 993.072509765625 171 183 205
1321 33 992.0725708007812 168 180 202
1322 33 993.072509765625 181 196 215
1323 33 994.0724487304688 179 194 213
1324 33 995.0723876953125 177 189 211
1356 33 1015.11083984375 164 170 196
1357 33 1016.1107177734375 165 172 198
1358 33 1017.110595703125 171 182 204
1361 33 1018.1105346679688 164 175 197
1362 33 1019.1104125976562 179 195 211
1363 33 1020.1102905273438 177 195 209
1364 33 1021.1101684570312 170 183 200
1366 33 1021.1101684570312 166 181 200
1367 33 1022.1100463867188 173 188 207
1368 33 1023.1099853515625 174 187 206
1398 33 1041.1556396484375 170 182 206
1399 33 1042.155517578125 173 184 206
1400 33 1043.1552734375 183 190 216
1403 33 1043.1552734375 180 191 213
1404 33 1044.1551513671875 186 202 218
1405 33 1045.155029296875 174 191 207
1406 33 1046.1549072265625 159 171 193
1407 33 1047.1546630859375 162 174 198
1408 33 1048.154541015625 170 187 207
1472 33 1088.222412109375 173 185 209
1473 33 1089.22216796875 178 193 214
1506 33 1110.281494140625 169 176 202
1507 33 1111.28125 171 178 204
1508 33 1112.281005859375 173 180 206
1509 33 1113.28076171875 176 182 208
1576 33 1158.363037109375 165 175 202
1624 33 1190.43017578125 154 168 194
1625 33 1191.4298095703125 155 169 195
1631 33 1194.4287109375 179 193 219
1633 33 1196.427978515625 174 190 215
1820 33 1328.6959228515625 143 160 190
1826 33 1332.69384765625 168 188 213
1827 33 1333.693359375 170 187 213
1834 33 1337.6912841796875 165 196 216
1835 33 1338.6907958984375 150 181 202
1836 33 1339.6903076171875 146 176 200
1837 33 1340.689697265625 147 175 199
1840 33 1343.688232421875 159 186 207
1888 33 1377.76806640625 168 185 211
1889 33 1378.767578125 160 182 206
1890 33 1379.7669677734375 152 174 197
1891 33 1380.7664794921875 151 176 198
1895 33 1381.765869140625 168 192 216
1896 33 1382.765380859375 148 175 196
1897 33 1383.7647705078125 156 183 204
1898 33 1384.7642822265625 161 188 209
1899 33 1385.763671875 160 184 208
1900 33 1386.76318359375 151 172 199
869 34 757.4813232421875 53 88 92
870 34 758.480712890625 55 86 91
872 34 757.4813232421875 81 112 115
873 34 758.480712890625 73 104 107
874 34 759.4801025390625 95 123 127
883 34 763.4776000976562 131 147 162
917 34 778.3399047851562 140 148 167
918 34 779.3394775390625 141 153 169
921 34 780.3390502929688 147 163 178
948 34 792.2525024414062 136 149 166
949 34 793.2521362304688 151 164 180
988 34 811.1578369140625 139 152 171
992 34 812.1575927734375 150 163 180
993 34 813.1574096679688 150 166 181
1065 34 849.0477294921875 154 167 186
1066 34 850.0476684570312 153 166 183
1069 34 851.047607421875 157 172 191
1070 34 852.0475463867188 165 181 197
1101 34 868.020751953125 160 175 194
1222 34 934.008544921875 172 187 208
1223 34 935.008544921875 174 191 211
1224 34 936.008544921875 165 182 202
1263 34 958.0255737304688 158 173 194
1264 34 959.0255737304688 175 190 209
1265 34 960.0255126953125 176 193 211
1312 34 988.0612182617188 165 177 199
1313 34 989.0611572265625 168 183 202
1314 34 990.0610961914062 160 175 196
1317 34 991.06103515625 175 190 211
1318 34 992.0609741210938 183 199 215
1319 34 993.0609130859375 176 192 208
1321 34 992.0609741210938 178 190 212
1322 34 993.0609130859375 179 192 211
1323 34 994.0608520507812 182 195 214
1355 34 1014.0966186523438 160 170 195
1356 34 1015.0965576171875 173 181 204
1357 34 1016.096435546875 177 188 208
1358 34 1017.0963745117188 184 197 214
1361 34 1018.0962524414062 173 184 204
1362 34 1019.09619140625 179 197 211
1363 34 1020.0960693359375 176 194 208
1364 34 1021.0960083007812 166 182 198
1398 34 1041.1387939453125 180 195 214
1399 34 1042.138671875 181 197 213
1400 34 1043.1385498046875 173 184 204
1403 34 1043.1385498046875 181 193 215
1404 34 1044.138427734375 185 201 217
1405 34 1045.1383056640625 165 181 197
1501 34 1108.2598876953125 164 165 195
1502 34 1109.2596435546875 184 191 217
1503 34 1110.2593994140625 160 171 193
1506 34 1110.2593994140625 173 185 207
1507 34 1111.2591552734375 180 195 216
1508 34 1112.2589111328125 180 195 214
1509 34 1113.2587890625 183 195 217
1623 34 1189.404052734375 154 168 194
1624 34 1190.4036865234375 162 180 202
1625 34 1191.4033203125 172 190 212
1626 34 1192.403076171875 174 190 213
1818 34 1326.6650390625 155 172 200
1819 34 1327.66455078125 159 179 206
1820 34 1328.6639404296875 153 173 200
1825 34 1331.6624755859375 166 193 214
1826 34 1332.6619873046875 169 194 214
1827 34 1333.6614990234375 166 188 209
1835 34 1338.6590576171875 146 172 195
1880 34 1371.73828125 144 161 191
1882 34 1373.7371826171875 160 177 205
1883 34 1374.7366943359375 157 177 202
1888 34 1377.735107421875 159 184 206
1889 34 1378.734619140625 158 185 206
1890 34 1379.7340087890625 160 187 206
1891 34 1380.7335205078125 156 183 202
1895 34 1381.73291015625 158 178 203
1896 34 1382.732421875 156 181 203
863 35 755.51904296875 42 70 81
864 35 756.518310546875 48 78 88
866 35 756.518310546875 47 84 92
870 35 758.5169677734375 88 119 124
873 35 758.5169677734375 113 141 145
874 35 759.5162963867188 129 154 159
917 35 778.3701171875 147 155 174
918 35 779.36962890625 145 157 173
939 35 788.27978515625 130 146 162
948 35 792.2783813476562 141 154 170
949 35 793.2780151367188 148 161 177
984 35 809.1785888671875 129 142 161
992 35 812.1779174804688 155 168 185
1015 35 823.1190795898438 146 159 178
1016 35 824.118896484375 138 151 170
1064 35 848.0589599609375 148 161 180
1095 35 865.0283203125 145 160 179
1217 35 932.0048217773438 160 172 194
1218 35 933.0048217773438 170 185 206
1222 35 934.0048217773438 169 186 204
1223 35 935.0048217773438 177 194 212
1224 35 936.0048217773438 173 190 210
1311 35 987.0506591796875 160 170 195
1312 35 988.0505981445312 175 187 209
1313 35 989.050537109375 183 195 217
1314 35 990.0504760742188 170 185 206
1317 35 991.0504760742188 180 195 214
1318 35 992.0504150390625 183 199 215
1319 35 993.0503540039062 160 176 192
1355 35 1014.0833129882812 162 173 195
1356 35 1015.083251953125 178 189 209
1357 35 1016.0831909179688 182 193 213
1358 35 1017.0830688476562 185 198 215
1359 35 1018.0830078125 176 189 206
1392 35 1037.1234130859375 161 173 197
1393 35 1038.123291015625 175 190 211
1394 35 1039.1231689453125 174 191 209
1395 35 1040.123046875 172 187 206
1398 35 1041.1229248046875 181 197 213
1399 35 1042.122802734375 184 200 216
1400 35 1043.1226806640625 171 182 202
1453 35 1076.1859130859375 166 174 197
1500 35 1107.2388916015625 166 165 197
1501 35 1108.2386474609375 177 178 208
1502 35 1109.238525390625 187 198 220
1506 35 1110.23828125 172 184 206
1507 35 1111.238037109375 180 195 214
1508 35 1112.23779296875 181 196 215
1509 35 1113.2376708984375 184 197 216
1618 35 1186.37939453125 161 172 200
1619 35 1187.3790283203125 169 181 207
1620 35 1188.3787841796875 163 175 201
1623 35 1189.37841796875 165 181 206
1625 35 1191.3778076171875 179 202 220
1688 35 1234.46826171875 163 181 203
1813 35 1323.6351318359375 159 176 204
1818 35 1326.6336669921875 166 188 212
1819 35 1327.6331787109375 167 189 213
1820 35 1328.6328125 168 190 214
1825 35 1331.63134765625 168 193 215
1826 35 1332.630859375 175 201 218
1827 35 1333.63037109375 164 187 205
1880 35 1371.7059326171875 151 168 196
1881 35 1372.705322265625 154 171 199
1882 35 1373.704833984375 163 183 208
1883 35 1374.704345703125 169 191 214
1888 35 1377.7027587890625 153 178 200
1889 35 1378.7022705078125 157 184 205
1890 35 1379.7017822265625 153 178 200
863 36 755.5567626953125 52 81 89
867 36 757.5552978515625 89 118 124
870 36 758.5545654296875 116 144 148
874 36 759.5538330078125 131 154 162
938 36 787.3074340820312 141 154 171
939 36 788.3070678710938 136 149 165
982 36 807.2007446289062 137 150 166
983 36 808.2005004882812 137 150 167
984 36 809.2001953125 140 153 170
1011 36 822.1368408203125 142 155 174
1012 36 823.1366577148438 141 152 172
1015 36 823.1366577148438 154 167 186
1016 36 824.1365356445312 159 175 191
1089 36 861.0371704101562 141 156 175
1095 36 865.0369873046875 154 171 187
1217 36 932.0021362304688 168 180 202
1218 36 933.0021362304688 174 191 207
1222 36 934.0021362304688 168 183 204
1252 36 952.0131225585938 159 174 195
1311 36 987.041015625 154 166 190
1312 36 988.041015625 176 191 210
1313 36 989.0409545898438 177 192 211
1314 36 990.0408935546875 168 183 202
1317 36 991.0408935546875 178 190 212
1318 36 992.0408325195312 173 186 205
1355 36 1014.0709838867188 157 169 191
1356 36 1015.0709228515625 172 183 203
1357 36 1016.0708618164062 183 194 214
1387 36 1034.1087646484375 168 173 202
1388 36 1035.108642578125 175 185 210
1389 36 1036.108642578125 177 189 211
1392 36 1037.1085205078125 169 184 205
1393 36 1038.1083984375 171 188 208
1394 36 1039.1082763671875 182 199 215
1395 36 1040.108154296875 172 189 205
1398 36 1041.1080322265625 175 188 207
1451 36 1074.1680908203125 172 179 205
1452 36 1075.1678466796875 177 190 209
1453 36 1076.167724609375 174 187 206
1495 36 1104.21923828125 171 181 206
1496 36 1105.218994140625 172 187 208
1500 36 1107.2186279296875 171 177 203
1501 36 1108.2183837890625 179 190 212
1502 36 1109.2181396484375 182 197 216
1503 36 1110.218017578125 182 199 217
1506 36 1110.218017578125 174 184 209
1507 36 1111.2177734375 175 187 209
1611 36 1181.35595703125 175 182 211
1612 36 1182.355712890625 163 173 200
1613 36 1183.3553466796875 160 172 198
1617 36 1185.3548583984375 171 185 212
1618 36 1186.3544921875 176 194 216
1619 36 1187.354248046875 176 194 214
1811 36 1321.60546875 155 172 200
1812 36 1322.60498046875 171 191 216
1813 36 1323.6044921875 169 191 215
1814 36 1324.6041259765625 171 193 216
1819 36 1327.602783203125 164 189 211
1820 36 1328.602294921875 165 190 212
1880 36 1371.6741943359375 146 163 191
1881 36 1372.6737060546875 160 177 203
1882 36 1373.6732177734375 171 191 215
1883 36 1374.6727294921875 166 188 209
856 37 753.5973510742188 49 71 82
858 37 753.5973510742188 60 87 96
863 37 755.5957641601562 88 115 122
864 37 756.5950317382812 97 124 131
866 37 756.5950317382812 113 140 147
867 37 757.59423828125 117 142 149
871 37 759.5926513671875 134 159 166
938 37 787.3359985351562 145 158 174
939 37 788.3355712890625 152 168 183
978 37 806.2239379882812 135 148 165
983 37 808.223388671875 154 170 185
984 37 809.2230834960938 145 158 175
1007 37 820.1560668945312 140 151 171
1008 37 821.1558837890625 144 155 175
1011 37 822.1557006835938 151 164 183
1012 37 823.155517578125 164 175 195
1015 37 823.155517578125 165 178 195
1016 37 824.1553344726562 159 175 191
1090 37 862.0469970703125 159 174 193
1217 37 932.0005493164062 161 173 195
1218 37 933.0005493164062 173 189 205
1219 37 934.0005493164062 165 182 198
1251 37 951.0084228515625 179 194 213
1252 37 952.0084228515625 163 178 199
1311 37 987.0324096679688 163 175 197
1312 37 988.0324096679688 174 187 206
1313 37 989.0323486328125 176 189 208
1341 37 1005.0601806640625 161 168 194
1342 37 1006.0601196289062 167 179 201
1343 37 1007.06005859375 173 186 205
1387 37 1034.0947265625 177 183 209
1388 37 1035.0947265625 182 193 215
1389 37 1036.0946044921875 174 187 206
1392 37 1037.094482421875 176 188 210
1393 37 1038.0943603515625 177 192 213
1394 37 1039.0943603515625 172 189 207
1446 37 1072.151123046875 181 188 214
1447 37 1073.1510009765625 181 189 212
1451 37 1074.15087890625 183 193 218
1452 37 1075.150634765625 178 194 210
1453 37 1076.1505126953125 175 191 207
1454 37 1077.150390625 168 179 201
1495 37 1104.19970703125 179 189 214
1500 37 1107.19921875 177 184 210
1501 37 1108.198974609375 182 194 216
1502 37 1109.1988525390625 178 193 212
1611 37 1181.3319091796875 170 177 206
1612 37 1182.33154296875 172 182 209
1613 37 1183.331298828125 173 187 213
1614 37 1184.3310546875 169 184 207
1617 37 1185.330810546875 167 183 208
1811 37 1321.5755615234375 163 183 208
1812 37 1322.5751953125 160 185 207
1813 37 1323.57470703125 168 193 215
1820 37 1328.572509765625 161 186 208
1821 37 1329.5721435546875 157 179 203
1880 37 1371.6431884765625 148 165 193
852 38 749.6412353515625 43 61 73
855 38 752.638671875 54 77 85
864 38 756.6353149414062 121 146 151
867 38 757.6344604492188 131 154 160
903 38 771.4725952148438 137 148 166
904 38 772.4719848632812 131 142 160
938 38 787.3658447265625 155 168 184
939 38 788.3654174804688 152 168 181
1007 38 820.1762084960938 145 156 176
1008 38 821.1759643554688 151 162 182
1011 38 822.17578125 159 174 193
1012 38 823.175537109375 167 180 196
1050 38 841.1004638671875 146 159 178
1206 38 925.0 164 179 198
1207 38 926.0 152 167 186
1213 38 930.0 164 179 200
1241 38 946.0047607421875 175 187 209
1247 38 950.0047607421875 168 185 203
1250 38 950.0047607421875 173 188 207
1251 38 951.0047607421875 175 190 209
1341 38 1005.0497436523438 169 180 202
1342 38 1006.0496826171875 188 203 222
1343 38 1007.0496215820312 178 195 211
1344 38 1008.0496215820312 172 187 206
1387 38 1034.0816650390625 182 190 213
1388 38 1035.0816650390625 186 199 218
1389 38 1036.08154296875 183 196 213
1441 38 1069.1351318359375 168 178 203
1442 38 1070.135009765625 168 179 201
1445 38 1071.1348876953125 171 178 204
1446 38 1072.134765625 183 194 214
1447 38 1073.1346435546875 187 200 217
1452 38 1075.1343994140625 180 197 213
1487 38 1098.18212890625 173 183 210
1488 38 1099.1820068359375 153 160 188
1495 38 1104.18115234375 178 189 211
1496 38 1105.1810302734375 187 203 219
1612 38 1182.308349609375 178 195 215
1613 38 1183.30810546875 182 201 218
1614 38 1184.307861328125 179 198 215
1672 38 1223.392822265625 162 179 205
1675 38 1226.391845703125 153 173 197
