ply
format ascii 1.0
element vertex 1234
property float x
property float y
property float z
property float red
property float green
property float blue
end_header
713 512 790.2822265625 120 116 113
1235 512 1003.179931640625 196 202 218
1248 512 1010.7353515625 198 204 220
1399 512 1096.2208251953125 211 217 231
1400 512 1097.175048828125 210 217 233
1406 512 1100.99267578125 202 209 225
1410 512 1102.902099609375 204 212 225
1591 512 1217.1910400390625 207 216 231
1592 512 1218.15478515625 201 210 225
1841 512 1386.665771484375 172 183 211
1850 512 1393.4765625 160 175 204
1858 512 1398.3426513671875 166 181 210
1859 512 1399.31591796875 157 172 201
1860 512 1400.289306640625 162 179 207
1869 512 1407.103759765625 165 185 209
1870 512 1408.077392578125 166 188 212
1877 512 1411.972412109375 168 197 215
1878 512 1412.9461669921875 171 196 216
1906 512 1433.405029296875 180 207 224
1214 513 993.136474609375 203 204 224
1219 513 995.0216064453125 201 204 223
1235 513 1003.5103149414062 195 201 217
1236 513 1004.4541015625 207 215 228
1237 513 1005.39794921875 197 205 218
1367 513 1077.4586181640625 201 199 220
1368 513 1078.410888671875 206 204 225
1374 513 1082.2208251953125 212 215 234
1379 513 1085.0792236328125 211 214 229
1380 513 1086.0322265625 208 211 228
1575 513 1206.8636474609375 201 211 223
1833 513 1381.062255859375 163 179 204
1835 513 1383.0072021484375 156 176 200
1842 513 1387.870361328125 172 177 209
1850 513 1393.707275390625 161 182 209
1858 513 1398.572509765625 166 183 209
1859 513 1399.545654296875 168 185 211
1860 513 1400.518798828125 164 184 209
1869 513 1407.332275390625 179 201 222
1870 513 1408.3056640625 175 200 222
1877 513 1412.2000732421875 174 206 221
1878 513 1413.1737060546875 180 209 225
1191 514 980.2922973632812 190 197 215
1208 514 989.7034912109375 201 210 225
1218 514 994.4133911132812 208 215 231
1367 514 1077.764404296875 204 210 224
1368 514 1078.71630859375 206 212 226
1369 514 1079.66845703125 211 217 231
1373 514 1081.5728759765625 210 216 230
1374 514 1082.5252685546875 208 215 231
1378 514 1084.4302978515625 208 214 228
1379 514 1085.3829345703125 205 211 225
1380 514 1086.3355712890625 199 202 219
1551 514 1191.7403564453125 203 213 225
1556 514 1193.6636962890625 203 210 226
1557 514 1194.62548828125 200 206 222
1806 514 1362.829833984375 173 187 213
1812 514 1365.7445068359375 166 177 205
1813 514 1366.7161865234375 165 177 203
1814 514 1367.6878662109375 161 173 199
1833 514 1381.2957763671875 168 188 212
1835 514 1383.2403564453125 164 195 213
1836 514 1384.2127685546875 160 191 211
1842 514 1388.1026611328125 178 196 218
1843 514 1389.0751953125 177 193 218
1850 514 1393.938720703125 163 198 217
1181 515 975.932861328125 190 191 209
1183 515 977.8123779296875 196 197 217
1188 515 980.6324462890625 195 200 219
1191 515 980.6324462890625 201 208 226
1192 515 981.5726928710938 196 203 221
1208 515 990.0404052734375 202 211 226
1354 515 1070.460205078125 211 218 234
1792 515 1353.3558349609375 174 186 212
1793 515 1354.3267822265625 172 184 210
1794 515 1355.2977294921875 161 170 199
1798 515 1357.2398681640625 171 185 211
1799 515 1358.2109375 163 179 204
1800 515 1359.18212890625 167 183 208
1801 515 1360.1533203125 165 179 206
1807 515 1364.0384521484375 169 183 210
1812 515 1365.9813232421875 169 183 210
1813 515 1366.9527587890625 176 192 217
1814 515 1367.92431640625 180 194 220
1815 515 1368.8958740234375 174 188 214
1834 515 1382.5020751953125 188 220 235
1835 515 1383.4742431640625 175 211 225
1836 515 1384.4464111328125 171 207 223
1166 516 968.7651977539062 187 188 208
1181 516 976.2755737304688 197 207 219
1182 516 977.2149047851562 207 216 231
1183 516 978.1543579101562 202 211 226
1187 516 980.03369140625 207 217 229
1191 516 980.9735107421875 205 214 229
1192 516 981.9134521484375 203 212 227
1328 516 1055.5699462890625 205 214 229
1329 516 1056.519287109375 199 209 221
1335 516 1059.36767578125 200 210 222
1520 516 1171.1605224609375 205 213 224
1771 516 1338.069091796875 169 179 204
1772 516 1339.0391845703125 167 177 204
1792 516 1353.5955810546875 175 187 213
1793 516 1354.56640625 175 189 215
1794 516 1355.537109375 171 183 209
1798 516 1357.4788818359375 172 194 215
1799 516 1358.4498291015625 170 192 213
1800 516 1359.4207763671875 174 196 217
1801 516 1360.391845703125 171 191 215
1807 516 1364.2763671875 178 199 220
1808 516 1365.24755859375 179 197 219
1812 516 1366.2188720703125 179 201 222
1815 516 1369.1329345703125 185 211 226
1154 517 962.5487060546875 193 194 214
1165 517 968.1735229492188 211 212 232
1166 517 969.1114501953125 207 210 227
1323 517 1053.0384521484375 208 211 228
1324 517 1053.9871826171875 206 212 226
1510 517 1166.6451416015625 203 211 222
1772 517 1339.2822265625 183 195 221
1773 517 1340.252197265625 181 193 219
1774 517 1341.22216796875 178 188 215
1792 517 1353.8360595703125 194 210 233
1793 517 1354.806640625 192 209 229
1794 517 1355.7772216796875 186 203 223
1801 517 1360.631103515625 190 216 233
1140 518 956.3440551757812 200 206 222
1141 518 957.280029296875 197 204 220
1144 518 958.216064453125 203 210 226
1145 518 959.1522216796875 206 213 229
1149 518 961.0249633789062 205 214 229
1154 518 962.8982543945312 198 205 221
1299 518 1040.0870361328125 205 211 225
1305 518 1042.9285888671875 201 209 222
1487 518 1151.5946044921875 204 210 222
1732 518 1312.3909912109375 171 179 202
1737 518 1315.2965087890625 176 187 209
1738 518 1316.26513671875 178 189 211
1739 518 1317.23388671875 176 187 209
1740 518 1318.2025146484375 171 181 206
1748 518 1323.046875 173 180 206
1772 518 1339.5260009765625 186 209 227
1773 518 1340.495849609375 188 211 229
1774 518 1341.465576171875 189 210 229
715 519 793.8324584960938 139 139 137
1124 519 949.217041015625 195 198 217
1129 519 951.0862426757812 196 201 220
1140 519 956.6968994140625 210 216 232
1141 519 957.6325073242188 209 215 231
1144 519 958.5681762695312 206 213 229
1145 519 959.5040283203125 204 212 225
1466 519 1138.483642578125 197 205 218
1732 519 1312.6405029296875 181 192 214
1733 519 1313.6087646484375 181 193 215
1737 519 1315.5455322265625 176 187 209
1738 519 1316.513916015625 187 199 221
1739 519 1317.482421875 181 193 215
1740 519 1318.450927734375 179 191 213
1741 519 1319.4195556640625 178 190 212
1747 519 1322.3255615234375 181 198 218
1748 519 1323.29443359375 186 201 222
711 520 790.6838989257812 87 85 88
712 520 791.5806884765625 107 101 101
713 520 792.477783203125 121 117 114
714 520 793.3750610351562 126 125 120
715 520 794.2726440429688 138 138 136
1119 520 946.7719116210938 199 208 225
1120 520 947.7056274414062 199 211 227
1127 520 949.5736083984375 197 204 222
1128 520 950.5077514648438 204 213 230
1452 520 1130.172119140625 203 211 224
1453 520 1131.1278076171875 202 212 224
1454 520 1132.08349609375 202 214 226
1693 520 1286.77001953125 175 183 206
1699 520 1290.637451171875 174 180 206
1700 520 1291.6043701171875 179 185 209
1705 520 1293.53857421875 180 193 212
1706 520 1294.5057373046875 179 190 212
1707 520 1295.472900390625 171 179 202
1732 520 1312.8907470703125 187 209 223
1738 520 1316.763427734375 192 211 226
1739 520 1317.7318115234375 196 215 230
1740 520 1318.7000732421875 195 214 229
1741 520 1319.6685791015625 192 214 228
1747 520 1322.573974609375 193 216 230
1748 520 1323.5426025390625 187 209 223
710 521 790.23095703125 77 76 81
712 521 792.0233764648438 106 101 98
1103 521 938.73583984375 204 209 228
1104 521 939.6680297851562 201 210 227
1115 521 945.2639770507812 203 212 229
1120 521 948.0638427734375 192 204 220
1254 521 1016.4890747070312 204 212 225
1432 521 1118.0540771484375 211 224 233
1433 521 1119.008544921875 205 215 227
1691 521 1285.093017578125 177 181 208
1692 521 1286.0594482421875 178 186 209
1693 521 1287.0260009765625 176 188 210
1694 521 1287.99267578125 177 187 212
1699 521 1290.8927001953125 179 186 212
1700 521 1291.8594970703125 183 191 214
1706 521 1294.76025390625 178 193 212
1707 521 1295.7271728515625 186 199 218
1708 521 1296.6942138671875 187 198 220
1905 521 1433.7869873046875 155 178 196
711 522 791.5712280273438 100 98 99
1079 522 927.9277954101562 189 194 213
1080 522 928.85791015625 192 198 214
1088 522 931.6490478515625 200 212 226
1089 522 932.5797729492188 191 203 217
1104 522 940.0303344726562 200 207 223
1237 522 1007.3951416015625 197 207 219
1667 522 1268.9310302734375 181 189 210
1668 522 1269.896484375 175 183 206
1694 522 1288.2491455078125 179 200 219
1699 522 1291.148681640625 194 211 227
1700 522 1292.1153564453125 196 213 229
1701 522 1293.08203125 192 209 225
1706 522 1295.0155029296875 200 219 233
1905 522 1434.015380859375 163 180 206
1906 522 1434.9888916015625 158 175 201
1907 522 1435.96240234375 156 173 199
1912 522 1438.88330078125 160 177 205
1913 522 1439.85693359375 161 178 206
1914 522 1440.8306884765625 149 166 194
1919 522 1442.7781982421875 156 182 205
1065 523 921.791748046875 187 192 212
1079 523 928.2957763671875 200 205 224
1080 523 929.2254638671875 207 214 230
1084 523 931.0853881835938 207 216 233
1088 523 932.0155639648438 199 213 226
1220 523 998.319580078125 197 202 221
1643 523 1253.75634765625 175 177 200
1650 523 1257.614013671875 184 181 208
1651 523 1258.57861328125 188 184 211
1667 523 1269.1922607421875 185 198 217
1668 523 1270.157470703125 191 202 222
1669 523 1271.1226806640625 187 195 216
1701 523 1293.3382568359375 198 215 231
1868 523 1407.97802734375 168 182 209
1904 523 1433.2711181640625 157 174 202
1905 523 1434.244384765625 159 176 202
1906 523 1435.2177734375 160 180 205
1907 523 1436.191162109375 164 184 209
1913 523 1440.0850830078125 165 187 211
1914 523 1441.05859375 154 176 200
1915 523 1442.0322265625 159 181 205
1919 523 1443.005859375 157 190 209
1045 524 912.8882446289062 182 187 206
1055 524 917.5238647460938 190 197 215
1064 524 921.2350463867188 203 210 228
1065 524 922.1632080078125 201 208 226
1208 524 992.0806274414062 207 214 230
1209 524 993.0201416015625 212 220 233
1210 524 993.9597778320312 200 209 224
1380 524 1088.482421875 204 212 225
1629 524 1244.3834228515625 189 191 214
1630 524 1245.346923828125 184 189 211
1631 524 1246.310546875 178 183 205
1636 524 1249.2017822265625 187 194 213
1637 524 1250.1656494140625 186 192 214
1649 524 1256.9140625 192 198 220
1650 524 1257.87841796875 191 196 218
1667 524 1269.4542236328125 203 222 236
1668 524 1270.419189453125 200 217 233
1861 524 1403.3516845703125 164 181 211
1862 524 1404.32373046875 160 177 205
1863 524 1405.295654296875 163 180 208
1868 524 1408.2120361328125 169 183 212
1869 524 1409.1842041015625 164 180 206
1870 524 1410.1563720703125 166 181 210
1876 524 1413.0732421875 155 174 204
1877 524 1414.045654296875 156 177 206
1878 524 1415.01806640625 157 177 204
1879 524 1415.990478515625 150 170 197
1904 524 1433.5009765625 172 197 217
1905 524 1434.47412109375 174 199 219
1906 524 1435.447265625 171 198 217
1907 524 1436.4205322265625 179 206 223
1913 524 1440.3138427734375 175 204 220
1914 524 1441.2872314453125 178 210 225
1031 525 906.7838745117188 186 188 209
1045 525 913.2644653320312 202 207 226
1046 525 914.19091796875 200 207 225
1060 525 920.68017578125 197 204 220
1191 525 983.0386352539062 201 210 225
1192 525 983.9766235351562 204 211 227
1605 525 1229.2457275390625 190 188 210
1606 525 1230.2081298828125 186 184 206
1611 525 1232.133056640625 195 193 215
1612 525 1233.095703125 196 197 217
1630 525 1245.61474609375 188 196 215
1637 525 1250.432373046875 195 206 224
1643 525 1254.2874755859375 203 214 232
1644 525 1255.2513427734375 202 210 231
1649 525 1257.179443359375 206 217 235
1650 525 1258.1434326171875 201 212 230
1651 525 1259.107666015625 203 214 234
1833 525 1383.1883544921875 169 183 209
1834 525 1384.1593017578125 172 188 213
1835 525 1385.13037109375 163 181 205
1836 525 1386.101318359375 159 175 201
1843 525 1390.957275390625 161 178 204
1858 525 1400.6719970703125 153 173 206
1859 525 1401.6436767578125 153 173 206
1869 525 1409.418701171875 177 197 222
1870 525 1410.3907470703125 182 202 227
1876 525 1413.30712890625 170 194 220
1877 525 1414.279296875 176 200 226
1878 525 1415.2515869140625 176 200 224
1879 525 1416.223876953125 174 196 219
1906 525 1435.677490234375 182 211 225
1907 525 1436.650634765625 177 206 220
1022 526 903.465576171875 190 197 216
1023 526 904.3898315429688 190 199 216
1026 526 905.3143310546875 193 202 219
1027 526 906.2389526367188 190 199 216
1031 526 907.1636962890625 198 206 225
1045 526 913.6416015625 192 197 216
1046 526 914.567626953125 195 202 220
1165 526 970.2721557617188 205 208 227
1182 526 979.6366577148438 209 218 233
1183 526 980.5737915039062 205 214 229
1187 526 982.448486328125 200 207 223
1188 526 983.385986328125 198 207 224
1354 526 1072.9608154296875 196 202 218
1590 526 1218.9376220703125 189 185 208
1592 526 1220.8607177734375 197 195 217
1593 526 1221.8223876953125 190 191 212
1600 526 1226.631591796875 190 188 210
1605 526 1229.517822265625 195 200 219
1606 526 1230.47998046875 190 192 213
1611 526 1232.404541015625 196 201 220
1612 526 1233.366943359375 197 204 222
1613 526 1234.329345703125 191 198 216
1813 526 1368.87109375 171 185 211
1833 526 1383.427978515625 170 187 215
1834 526 1384.3988037109375 167 187 211
1835 526 1385.36962890625 165 185 209
1836 526 1386.3404541015625 164 181 207
1843 526 1391.195556640625 164 189 211
1844 526 1392.1666259765625 160 177 203
1859 526 1401.880126953125 163 189 212
1869 526 1409.65380859375 171 200 218
1870 526 1410.625732421875 178 205 222
1877 526 1414.513671875 183 210 227
1878 526 1415.48583984375 185 213 227
1008 527 897.3850708007812 197 204 223
1022 527 903.847900390625 204 213 230
1023 527 904.7717895507812 204 213 230
1027 527 906.6201171875 197 206 221
1154 527 965.0145263671875 203 208 227
1166 527 971.5606079101562 212 219 235
1334 527 1060.9547119140625 200 210 222
1574 527 1208.642578125 188 191 210
1576 527 1210.56396484375 185 186 206
1591 527 1220.1741943359375 192 193 213
1592 527 1221.135498046875 192 197 216
1593 527 1222.096923828125 191 196 215
1599 527 1225.943359375 199 204 223
1605 527 1229.7906494140625 203 212 229
1612 527 1233.638916015625 208 220 236
1800 527 1361.3555908203125 162 180 204
1801 527 1362.3251953125 165 181 206
1805 527 1364.2646484375 166 177 205
1806 527 1365.234375 168 182 208
1807 527 1366.2042236328125 174 188 214
1808 527 1367.174072265625 170 179 210
1813 527 1369.1138916015625 173 187 213
1814 527 1370.083984375 169 185 210
1815 527 1371.053955078125 164 180 206
1816 527 1372.0240478515625 160 171 201
1834 527 1384.638916015625 167 194 215
1835 527 1385.609619140625 173 200 219
1836 527 1386.580322265625 175 195 219
1844 527 1392.405517578125 185 207 230
1851 527 1397.2608642578125 180 211 231
1871 527 1411.833251953125 179 207 221
711 528 792.462646484375 80 75 79
712 528 793.357421875 96 90 90
986 528 888.5567016601562 178 185 203
990 528 890.3982543945312 188 196 215
1008 528 897.7711181640625 201 210 227
1009 528 898.6934814453125 188 197 214
1141 528 959.7666625976562 208 215 231
1145 528 961.634033203125 207 216 231
1149 528 963.501953125 202 211 228
1154 528 965.3704223632812 200 207 223
1155 528 966.3048095703125 190 197 213
1540 528 1187.8089599609375 183 175 199
1552 528 1195.4822998046875 196 192 215
1557 528 1197.4013671875 191 192 212
1559 528 1199.3206787109375 191 187 210
1575 528 1209.88134765625 194 206 220
1576 528 1210.841796875 195 204 219
1599 528 1226.2177734375 213 225 239
1772 528 1341.2520751953125 178 193 214
1791 528 1354.8154296875 165 177 203
1792 528 1355.78466796875 171 183 209
1793 528 1356.75390625 173 185 211
1794 528 1357.72314453125 167 176 205
1795 528 1358.6923828125 167 176 205
1799 528 1360.631103515625 168 186 210
1800 528 1361.6005859375 179 197 219
1801 528 1362.5699462890625 171 189 211
1806 528 1365.4786376953125 171 189 213
1807 528 1366.4483642578125 172 190 214
1808 528 1367.41796875 172 188 213
1813 528 1369.3575439453125 166 187 208
1814 528 1370.327392578125 172 194 215
1815 528 1371.2972412109375 177 202 222
1816 528 1372.26708984375 172 194 217
1834 528 1384.8797607421875 185 219 231
1835 528 1385.8502197265625 188 222 234
1836 528 1386.82080078125 191 219 233
1837 528 1387.7913818359375 184 210 227
1850 528 1396.528564453125 177 209 224
976 529 884.3489379882812 188 195 214
986 529 888.9476928710938 200 209 226
987 529 889.8679809570312 192 201 218
1115 529 947.0739135742188 197 202 221
1124 529 951.7321166992188 207 214 230
1128 529 952.6641845703125 213 216 233
1129 529 953.5963745117188 204 210 226
1538 529 1186.17578125 190 185 208
1540 529 1188.093017578125 186 181 204
1545 529 1190.9693603515625 193 190 211
1546 529 1191.92822265625 194 190 213
1559 529 1199.60205078125 194 195 215
1748 529 1325.0467529296875 181 187 213
1772 529 1341.5013427734375 176 191 212
1773 529 1342.4697265625 171 186 207
1774 529 1343.4381103515625 177 189 215
1792 529 1356.0313720703125 175 191 216
1793 529 1357.0003662109375 189 205 228
1794 529 1357.969482421875 194 209 232
1795 529 1358.9385986328125 183 197 223
1799 529 1360.876953125 180 201 222
1800 529 1361.84619140625 190 211 230
1801 529 1362.8154296875 196 217 236
1802 529 1363.7847900390625 193 211 231
1806 529 1365.7236328125 186 207 228
1807 529 1366.693115234375 194 216 237
1808 529 1367.66259765625 187 208 229
1809 529 1368.6322021484375 195 216 237
1813 529 1369.601806640625 191 214 232
1814 529 1370.5714111328125 189 216 233
1815 529 1371.5411376953125 182 209 226
1816 529 1372.5108642578125 183 210 229
712 530 794.2518310546875 117 111 111
964 530 880.1505737304688 191 202 220
965 530 881.0686645507812 194 205 223
972 530 883.8240966796875 198 210 226
976 530 884.742919921875 195 204 221
986 530 889.3396606445312 195 204 219
1103 530 940.9255981445312 196 203 221
1115 530 947.4386596679688 206 213 229
1116 530 948.36962890625 205 212 228
1119 530 949.30078125 202 209 227
1120 530 950.2320556640625 201 210 225
1124 530 952.0950317382812 202 210 223
1510 530 1169.2227783203125 189 186 207
1511 530 1170.179931640625 189 187 208
1516 530 1173.0516357421875 191 188 209
1522 530 1175.9239501953125 188 191 210
1523 530 1176.8814697265625 185 186 206
1538 530 1186.461181640625 191 196 215
1540 530 1188.3779296875 194 199 218
1545 530 1191.2535400390625 201 208 224
1546 530 1192.2122802734375 197 204 220
1552 530 1196.047607421875 208 217 232
1738 530 1318.5299072265625 174 179 208
1739 530 1319.496826171875 177 184 212
1740 530 1320.4639892578125 173 180 208
1741 530 1321.4310302734375 175 181 207
1748 530 1325.2999267578125 181 188 214
1749 530 1326.267333984375 183 190 216
1772 530 1341.75146484375 181 202 219
1773 530 1342.7196044921875 183 204 221
1774 530 1343.6878662109375 190 209 226
1792 530 1356.2786865234375 184 207 225
1793 530 1357.24755859375 186 209 225
1794 530 1358.2164306640625 189 212 228
1795 530 1359.1854248046875 182 203 220
1799 530 1361.1234130859375 192 215 231
1800 530 1362.092529296875 189 215 230
1801 530 1363.0616455078125 194 220 233
1815 530 1371.78564453125 180 206 223
954 531 875.9617309570312 200 207 225
955 531 876.8785400390625 190 199 216
964 531 880.5475463867188 195 206 224
965 531 881.4652709960938 199 210 228
1104 531 942.2234497070312 204 213 230
1494 531 1158.99267578125 186 181 203
1501 531 1162.8172607421875 181 176 198
1502 531 1163.7735595703125 187 182 205
1516 531 1173.3409423828125 196 197 217
1522 531 1176.2125244140625 199 206 222
1523 531 1177.169921875 195 201 217
1539 531 1187.705322265625 210 217 233
1546 531 1192.4969482421875 209 217 230
1707 531 1297.5277099609375 171 182 202
1732 531 1314.918212890625 181 188 214
1733 531 1315.8848876953125 182 193 215
1734 531 1316.8515625 181 188 214
1738 531 1318.7850341796875 178 185 211
1739 531 1319.7518310546875 185 195 220
1740 531 1320.71875 182 192 217
1741 531 1321.6856689453125 174 184 209
1748 531 1325.5538330078125 184 196 218
1772 531 1342.002197265625 195 218 234
1773 531 1342.97021484375 193 216 230
1774 531 1343.938232421875 195 217 231
1775 531 1344.9063720703125 198 217 234
1794 531 1358.4642333984375 179 205 220
942 532 871.7826538085938 192 201 218
1055 532 919.4047241210938 178 183 202
1081 532 932.3781127929688 199 208 223
1084 532 933.3059692382812 206 215 230
1085 532 934.23388671875 200 209 224
1088 532 934.23388671875 202 211 226
1089 532 935.1620483398438 195 204 219
1487 532 1154.508544921875 190 188 209
1488 532 1155.4639892578125 191 189 210
1494 532 1159.286376953125 199 202 219
1495 532 1160.2421875 194 197 214
1516 532 1173.631103515625 209 219 229
1517 532 1174.5880126953125 207 217 227
1692 532 1288.135498046875 176 182 204
1700 532 1293.9261474609375 173 177 202
1701 532 1294.8914794921875 173 177 202
1706 532 1296.822265625 175 186 208
1707 532 1297.7877197265625 171 179 202
1708 532 1298.7532958984375 178 184 208
1732 532 1315.1749267578125 190 205 224
1733 532 1316.141357421875 187 206 221
1734 532 1317.1077880859375 187 206 223
1739 532 1320.007568359375 187 206 221
1740 532 1320.9742431640625 188 210 224
1741 532 1321.9410400390625 193 212 227
1766 532 1339.3505859375 196 220 232
917 533 863.0457763671875 184 191 209
934 533 869.4417724609375 198 207 222
1055 533 919.78369140625 188 193 212
1064 533 923.4857788085938 196 205 220
1065 533 924.4116821289062 203 212 227
1453 533 1133.8099365234375 191 183 207
1459 533 1137.624267578125 194 186 210
1460 533 1138.5780029296875 192 184 208
1461 533 1139.531982421875 191 183 206
1465 533 1140.48583984375 195 190 213
1466 533 1141.4398193359375 194 189 212
1467 533 1142.3939208984375 190 185 207
1488 533 1155.759521484375 204 207 224
1494 533 1159.5809326171875 208 216 229
1692 533 1288.398193359375 172 180 203
1693 533 1289.363037109375 179 187 210
1694 533 1290.327880859375 178 186 209
1695 533 1291.292724609375 176 184 207
1700 533 1294.187744140625 180 188 211
1701 533 1295.15283203125 182 190 213
1706 533 1297.083251953125 186 201 220
1707 533 1298.048583984375 184 197 216
1708 533 1299.013916015625 186 197 219
1732 533 1315.4322509765625 201 220 234
1733 533 1316.3984375 198 220 233
1734 533 1317.36474609375 195 217 231
1741 533 1322.197021484375 191 213 227
912 534 860.7171630859375 191 198 214
913 534 861.6292724609375 194 203 218
917 534 863.4541015625 189 198 213
1046 534 916.4655151367188 198 205 223
1064 534 923.8641967773438 194 201 217
1210 534 996.3759155273438 206 212 228
1433 534 1121.7276611328125 186 182 205
1453 534 1134.1119384765625 195 193 214
1454 534 1135.065185546875 196 194 215
1455 534 1136.0184326171875 199 197 218
1460 534 1138.8787841796875 198 199 219
1461 534 1139.8323974609375 190 193 210
1465 534 1140.7861328125 198 201 220
1466 534 1141.7398681640625 199 202 221
1467 534 1142.6937255859375 196 199 216
1668 534 1272.27197265625 186 194 217
1669 534 1273.235595703125 179 185 209
1692 534 1288.6617431640625 185 202 220
1693 534 1289.6263427734375 185 202 220
1694 534 1290.5909423828125 183 200 218
1695 534 1291.5556640625 190 207 225
1701 534 1295.4150390625 194 213 228
1707 534 1298.31005859375 197 220 234
1708 534 1299.275146484375 194 213 230
900 535 856.572265625 192 204 220
1022 535 905.773681640625 193 200 219
1023 535 906.6956787109375 192 199 218
1027 535 908.5400390625 201 206 226
1031 535 909.4624633789062 202 213 231
1045 535 915.9241333007812 191 198 214
1411 535 1108.7164306640625 191 186 206
1418 535 1112.5196533203125 189 181 205
1419 535 1113.470703125 193 185 209
1420 535 1114.421875 192 184 208
1432 535 1121.08203125 198 194 217
1433 535 1122.0338134765625 196 194 216
1453 535 1134.414794921875 207 210 227
1454 535 1135.3677978515625 207 210 227
1455 535 1136.32080078125 206 212 228
1460 535 1139.180419921875 204 211 227
1461 535 1140.1337890625 203 209 225
1466 535 1142.040771484375 208 214 230
1630 535 1247.5098876953125 182 185 204
1636 535 1251.3580322265625 190 190 214
1637 535 1252.3201904296875 181 178 205
1643 535 1256.1695556640625 184 186 209
1644 535 1257.132080078125 182 182 206
1650 535 1260.0198974609375 183 185 210
1651 535 1260.9825439453125 179 181 206
1667 535 1271.576171875 188 203 224
1668 535 1272.53955078125 190 202 224
1669 535 1273.5030517578125 189 202 221
1693 535 1289.8902587890625 200 222 236
1694 535 1290.854736328125 198 220 234
1695 535 1291.8192138671875 191 210 225
711 536 794.708740234375 82 80 83
884 536 851.5286254882812 185 194 211
1009 536 900.6358642578125 189 198 215
1022 536 906.1616821289062 197 206 223
1023 536 907.083251953125 201 210 227
1400 536 1102.37646484375 196 194 215
1401 536 1103.3262939453125 192 190 211
1412 536 1109.9774169921875 198 195 214
1418 536 1112.8292236328125 190 191 211
1432 536 1121.3892822265625 204 211 227
1433 536 1122.3408203125 202 211 226
1629 536 1246.8218994140625 185 190 210
1630 536 1247.78369140625 191 196 215
1631 536 1248.745361328125 183 188 207
1637 536 1252.5928955078125 193 195 218
1643 536 1256.44140625 187 195 214
1644 536 1257.4036865234375 190 198 217
1650 536 1260.2908935546875 190 201 221
1651 536 1261.2532958984375 191 202 222
1667 536 1271.8447265625 196 217 234
1668 536 1272.807861328125 199 220 237
1669 536 1273.7711181640625 202 221 236
710 537 794.2694702148438 69 70 74
712 537 796.052734375 104 100 99
871 537 846.4986572265625 187 195 214
986 537 890.9169311523438 195 200 220
999 537 896.4290161132812 190 197 215
1008 537 900.1072387695312 203 212 227
1009 537 901.0272216796875 194 203 218
1166 537 974.0538940429688 199 208 225
1167 537 974.9871826171875 194 201 217
1379 537 1090.3541259765625 198 193 215
1380 537 1091.302490234375 193 188 210
1381 537 1092.2508544921875 188 183 205
1385 537 1093.199462890625 202 200 221
1400 537 1102.68994140625 199 198 216
1401 537 1103.639404296875 203 202 220
1402 537 1104.589111328125 197 195 216
1406 537 1106.4886474609375 208 209 227
1407 537 1107.4384765625 210 211 229
1412 537 1110.2886962890625 213 214 232
1418 537 1113.1396484375 204 210 226
1592 537 1223.080078125 188 186 208
1605 537 1231.7215576171875 192 197 217
1606 537 1232.6820068359375 194 196 217
1611 537 1234.6031494140625 196 197 218
1612 537 1235.5638427734375 189 192 211
1613 537 1236.5245361328125 189 191 212
1629 537 1247.0966796875 197 204 222
1630 537 1248.05810546875 191 200 217
1631 537 1249.0196533203125 198 207 224
1632 537 1249.981201171875 198 205 224
1637 537 1252.8663330078125 207 214 233
1638 537 1253.828125 210 217 236
1643 537 1256.7139892578125 208 221 237
1644 537 1257.676025390625 199 212 228
1649 537 1259.600341796875 202 219 235
1650 537 1260.5626220703125 204 220 236
1651 537 1261.52490234375 203 216 233
711 538 795.6142578125 79 78 83
976 538 886.7271118164062 191 200 217
986 538 891.3136596679688 199 206 224
987 538 892.2314453125 202 209 227
991 538 894.0676879882812 197 206 221
1142 538 963.2289428710938 200 207 223
1149 538 966.0233154296875 200 205 224
1368 538 1084.037841796875 193 189 212
1369 538 1084.9852294921875 197 195 216
1370 538 1085.9327392578125 194 196 217
1375 538 1088.77587890625 196 197 217
1380 538 1091.619873046875 195 198 217
1381 538 1092.568115234375 195 198 217
1385 538 1093.516357421875 198 205 221
1386 538 1094.4647216796875 197 203 219
1401 538 1103.953369140625 206 214 225
1407 538 1107.7513427734375 210 216 230
1591 538 1222.4013671875 186 184 206
1592 538 1223.3609619140625 194 197 216
1593 538 1224.3206787109375 193 198 217
1600 538 1229.1199951171875 190 199 216
1606 538 1232.960693359375 199 208 225
1611 538 1234.88134765625 199 208 225
1612 538 1235.841796875 201 213 227
1613 538 1236.8023681640625 202 214 228
1629 538 1247.3720703125 208 220 234
1630 538 1248.333251953125 208 222 235
1631 538 1249.2945556640625 207 221 234
1637 538 1253.1405029296875 203 216 232
1644 538 1257.9490966796875 194 206 222
955 539 878.88623046875 188 195 213
965 539 883.4625244140625 199 208 225
969 539 885.2943115234375 197 206 223
976 539 887.1268310546875 190 199 216
1354 539 1075.8382568359375 199 197 218
1355 539 1076.7845458984375 197 198 218
1369 539 1085.3055419921875 209 210 230
1370 539 1086.252685546875 206 211 230
1375 539 1089.0950927734375 210 215 234
1379 539 1090.9903564453125 211 216 235
1380 539 1091.938232421875 209 216 234
1385 539 1093.8341064453125 209 218 233
1558 539 1200.63525390625 186 182 205
1559 539 1201.5931396484375 182 178 201
1575 539 1212.134033203125 193 194 214
1576 539 1213.0927734375 199 200 220
1591 539 1222.68310546875 202 205 224
1592 539 1223.6424560546875 197 204 222
1593 539 1224.6019287109375 202 211 226
1605 539 1232.280029296875 206 220 233
1613 539 1237.080810546875 203 215 229
934 540 871.0689086914062 184 191 209
955 540 879.2906494140625 197 206 221
965 540 883.8648071289062 202 209 225
1324 540 1059.151123046875 197 198 216
1330 540 1062.928466796875 197 200 217
1334 540 1063.8731689453125 194 197 214
1335 540 1064.81787109375 199 200 218
1355 540 1077.108154296875 200 209 224
1539 540 1189.4368896484375 192 188 211
1540 540 1190.3936767578125 191 187 210
1541 540 1191.3504638671875 186 182 205
1546 540 1194.2215576171875 188 186 208
1547 540 1195.1785888671875 192 188 211
1552 540 1198.050537109375 186 187 208
1557 540 1199.9654541015625 199 200 220
1558 540 1200.9229736328125 196 197 217
1559 540 1201.880615234375 193 194 214
1560 540 1202.8382568359375 192 193 213
1575 540 1212.4190673828125 203 212 227
1576 540 1213.3775634765625 202 211 226
1591 540 1222.9656982421875 203 215 229
1919 540 1446.0252685546875 161 183 207
921 541 866.008056640625 177 182 201
934 541 871.47802734375 192 199 217
938 541 873.3029174804688 195 204 221
942 541 874.2156372070312 192 201 216
1300 541 1046.2772216796875 193 194 212
1305 541 1048.1622314453125 193 194 212
1324 541 1059.48095703125 204 207 224
1325 541 1060.4249267578125 201 204 221
1330 541 1063.2572021484375 202 208 224
1334 541 1064.2015380859375 205 211 227
1335 541 1065.14599609375 206 212 228
1336 541 1066.090576171875 206 205 223
1522 541 1178.2550048828125 186 184 206
1523 541 1179.210693359375 187 185 207
1524 541 1180.16650390625 187 184 205
1540 541 1190.6846923828125 198 199 219
1541 541 1191.641357421875 193 194 214
1546 541 1194.5115966796875 204 205 225
1547 541 1195.468505859375 200 201 221
1552 541 1198.3397216796875 201 206 225
1553 541 1199.296875 200 207 225
1558 541 1201.21142578125 208 214 230
1559 541 1202.1688232421875 208 214 230
1560 541 1203.1263427734375 199 202 219
1575 541 1212.704833984375 207 216 231
1576 541 1213.6630859375 202 214 228
1905 541 1437.5203857421875 163 180 206
1906 541 1438.4915771484375 167 185 209
1907 541 1439.4627685546875 165 183 207
1908 541 1440.4339599609375 164 182 206
1913 541 1443.347900390625 162 184 207
1914 541 1444.3192138671875 161 181 205
1915 541 1445.2906494140625 154 175 196
1916 541 1446.2620849609375 150 171 192
1919 541 1446.2620849609375 151 175 199
913 542 863.6897583007812 186 195 210
917 542 865.51025390625 195 204 219
921 542 866.4207763671875 193 200 216
1081 542 935.0133666992188 196 202 218
1277 542 1033.43359375 192 195 212
1278 542 1034.374267578125 193 196 211
1294 542 1042.8447265625 196 202 216
1295 542 1043.786376953125 196 202 216
1305 542 1048.49658203125 198 204 218
1306 542 1049.4388427734375 198 204 220
1494 542 1161.36474609375 185 180 202
1502 542 1166.135986328125 188 186 208
1516 542 1175.68408203125 197 200 217
1517 542 1176.6392822265625 193 199 215
1522 542 1178.5499267578125 202 209 225
1523 542 1179.50537109375 194 203 218
1524 542 1180.4609375 197 204 220
1540 542 1190.9764404296875 210 220 232
1541 542 1191.932861328125 205 215 227
1546 542 1194.802490234375 210 218 231
1552 542 1198.629638671875 204 216 230
1877 542 1417.378173828125 162 178 203
1878 542 1418.348388671875 143 160 188
1904 542 1436.7884521484375 154 171 199
1905 542 1437.7593994140625 164 184 209
1906 542 1438.7303466796875 162 184 207
1907 542 1439.701416015625 171 193 214
1916 542 1446.49951171875 165 192 209
913 543 864.104736328125 190 199 214
1260 543 1025.3160400390625 192 195 214
1264 543 1026.25537109375 194 195 215
1265 543 1027.1947021484375 190 191 209
1277 543 1033.773681640625 198 204 220
1278 543 1034.7139892578125 199 205 219
1488 543 1157.8502197265625 194 191 212
1489 543 1158.8037109375 190 185 205
1494 543 1161.664794921875 200 197 218
1495 543 1162.61865234375 197 194 215
1516 543 1175.98046875 206 214 227
1517 543 1176.9354248046875 206 214 227
1522 543 1178.8455810546875 210 220 232
1523 543 1179.80078125 206 218 230
1524 543 1180.756103515625 201 211 223
1859 543 1405.015625 153 168 197
1860 543 1405.985107421875 165 179 208
1862 543 1407.9239501953125 162 173 203
1869 543 1412.7720947265625 162 179 205
1871 543 1414.711669921875 163 190 217
1876 543 1416.6513671875 161 181 206
1877 543 1417.6212158203125 160 180 205
1878 543 1418.5911865234375 153 174 201
1907 543 1439.940673828125 178 207 223
1908 543 1440.9114990234375 181 209 223
1916 543 1446.7376708984375 184 216 229
881 544 852.7185668945312 181 189 208
891 544 855.4390869140625 195 204 221
901 544 859.977294921875 192 199 215
1250 544 1020.0284423828125 196 199 216
1251 544 1020.9666748046875 193 196 213
1259 544 1024.720947265625 201 207 223
1260 544 1025.6597900390625 201 208 224
1264 544 1026.5987548828125 208 215 231
1265 544 1027.537841796875 199 207 220
1277 544 1034.1146240234375 205 211 227
1278 544 1035.0545654296875 202 208 222
1454 544 1137.2000732421875 189 184 206
1455 544 1138.151611328125 184 179 201
1460 544 1141.006591796875 187 185 207
1461 544 1141.9583740234375 188 185 206
1465 544 1142.9102783203125 196 193 214
1466 544 1143.8623046875 195 192 213
1467 544 1144.814453125 190 188 209
1488 544 1158.1519775390625 203 210 226
1489 544 1159.105224609375 202 210 223
1494 544 1161.965576171875 201 208 224
1495 544 1162.919189453125 197 204 220
1502 544 1166.734375 206 216 228
1510 544 1172.4593505859375 210 220 230
1835 544 1388.791259765625 178 187 216
1836 544 1389.7596435546875 168 179 207
1843 544 1394.602783203125 160 171 201
1844 544 1395.571533203125 171 177 211
1870 544 1413.9862060546875 170 201 222
1878 544 1418.834716796875 167 198 218
1879 544 1419.8045654296875 162 195 214
1880 544 1420.7744140625 165 202 220
860 545 844.9952392578125 179 186 205
1024 545 910.3477172851562 194 206 222
1031 545 912.1869506835938 192 204 220
1221 545 1004.4481201171875 181 179 201
1236 545 1011.938720703125 199 200 220
1237 545 1012.8756103515625 201 202 220
1249 545 1019.4370727539062 199 202 219
1250 545 1020.3749389648438 208 214 230
1251 545 1021.3128662109375 206 212 228
1255 545 1023.1891479492188 205 212 228
1259 545 1025.0657958984375 205 212 228
1433 545 1124.19970703125 189 184 206
1434 545 1125.1497802734375 191 181 206
1454 545 1137.50830078125 199 197 218
1455 545 1138.45947265625 207 205 226
1460 545 1141.313720703125 200 203 222
1461 545 1142.2652587890625 202 203 223
1466 545 1144.168701171875 205 208 225
1467 545 1145.1204833984375 202 205 222
1488 545 1158.45458984375 205 215 227
1494 545 1162.2672119140625 203 211 224
1802 545 1366.781982421875 159 175 200
1808 545 1370.6512451171875 167 181 208
1809 545 1371.6187744140625 158 169 197
1813 545 1372.5863037109375 174 181 210
1814 545 1373.5538330078125 169 180 208
1815 545 1374.5213623046875 168 182 209
1816 545 1375.489013671875 171 182 210
1834 545 1388.0723876953125 176 187 215
1835 545 1389.0406494140625 177 188 216
1836 545 1390.009033203125 172 186 213
1837 545 1390.977294921875 166 180 207
1844 545 1395.81982421875 175 186 214
1858 545 1404.5390625 184 209 229
1879 545 1420.048583984375 182 218 234
711 546 797.4371337890625 83 83 85
715 546 800.99560546875 142 141 136
1209 546 998.2554931640625 191 194 213
1210 546 999.190185546875 188 191 210
1236 546 1012.2890014648438 201 208 224
1237 546 1013.2255249023438 205 213 226
1418 546 1115.019287109375 187 183 206
1419 546 1115.9681396484375 183 178 201
1433 546 1124.5123291015625 197 200 217
1434 546 1125.462158203125 190 188 209
1454 546 1137.8172607421875 208 216 229
1455 546 1138.7681884765625 206 214 227
1456 546 1139.71923828125 200 208 221
1461 546 1142.572998046875 204 214 224
1466 546 1144.475830078125 206 214 225
1467 546 1145.427490234375 203 211 222
1791 546 1358.3345947265625 166 180 207
1793 546 1360.2679443359375 166 180 207
1794 546 1361.2347412109375 168 182 211
1795 546 1362.2015380859375 173 184 212
1801 546 1366.0692138671875 167 188 209
1802 546 1367.0362548828125 168 186 210
1809 546 1371.8720703125 175 191 216
1815 546 1374.774169921875 174 194 218
1816 546 1375.7415771484375 175 193 217
1817 546 1376.7091064453125 172 188 213
1835 546 1389.290771484375 187 207 231
1836 546 1390.2589111328125 187 208 229
1837 546 1391.2271728515625 186 207 226
1859 546 1405.75537109375 181 207 222
711 547 797.8953857421875 78 79 81
712 547 798.7840576171875 95 91 92
713 547 799.6730346679688 109 105 102
833 547 836.830322265625 167 178 198
852 547 843.1429443359375 186 194 213
1192 547 989.2749633789062 188 189 210
1210 547 999.5458984375 197 202 221
1215 547 1002.3497314453125 198 205 221
1221 547 1005.1547241210938 197 202 221
1400 547 1104.9063720703125 187 184 205
1401 547 1105.85400390625 195 192 213
1402 547 1106.8017578125 192 189 210
1407 547 1109.6453857421875 199 197 218
1418 547 1115.3353271484375 198 199 219
1419 547 1116.2840576171875 199 200 220
1433 547 1124.8258056640625 206 213 229
1434 547 1125.7752685546875 198 204 220
1453 547 1137.17626953125 207 213 227
1455 547 1139.07763671875 205 213 226
1773 547 1346.0316162109375 172 187 210
1774 547 1346.9974365234375 166 182 205
1775 547 1347.9632568359375 160 176 201
1794 547 1361.49072265625 169 186 212
1801 547 1366.32421875 178 203 223
1802 547 1367.2911376953125 178 200 223
1807 547 1370.1920166015625 188 206 228
1808 547 1371.1590576171875 188 206 228
1809 547 1372.1260986328125 186 204 226
1815 547 1375.027587890625 180 206 223
1816 547 1375.994873046875 180 206 223
1817 547 1376.9622802734375 185 207 228
1836 547 1390.5096435546875 191 217 234
1837 547 1391.4776611328125 195 218 234
711 548 798.3545532226562 80 80 80
712 548 799.2427368164062 97 96 94
713 548 800.1312255859375 114 110 107
832 548 836.3641357421875 180 188 207
966 548 886.8038330078125 200 209 226
1183 548 985.9057006835938 191 194 213
1184 548 986.837890625 189 194 213
1188 548 988.7026977539062 193 200 218
1192 548 989.6353149414062 197 204 220
1193 548 990.5679931640625 197 204 220
1209 548 998.9684448242188 202 211 226
1211 548 1000.836669921875 200 212 226
1368 548 1086.2987060546875 192 190 211
1369 548 1087.2442626953125 192 190 211
1370 548 1088.1898193359375 184 185 205
1375 548 1091.027099609375 193 190 211
1376 548 1091.9730224609375 195 192 213
1380 548 1093.8651123046875 199 200 220
1381 548 1094.8114013671875 196 197 217
1386 548 1096.7041015625 188 191 210
1400 548 1105.2261962890625 205 211 227
1401 548 1106.173583984375 204 211 227
1402 548 1107.12109375 210 216 232
1407 548 1109.9639892578125 204 213 228
1418 548 1115.6522216796875 207 215 228
1733 548 1319.2740478515625 168 180 202
1739 548 1323.131103515625 173 188 209
1740 548 1324.0955810546875 172 184 208
1741 548 1325.06005859375 168 178 203
1746 548 1326.989013671875 172 182 207
1748 548 1328.9183349609375 166 173 201
1749 548 1329.883056640625 172 177 206
1775 548 1348.2225341796875 171 196 216
1795 548 1362.7138671875 187 213 230
1808 548 1371.413818359375 202 221 236
712 549 799.7024536132812 103 99 98
813 549 830.5064697265625 175 182 200
1150 549 969.5179443359375 181 182 202
1155 549 971.3768310546875 174 175 195
1156 549 972.3065185546875 181 182 203
1166 549 976.95703125 202 205 224
1167 549 977.8875122070312 193 196 215
1188 549 989.064208984375 200 209 226
1189 549 989.9964599609375 196 205 220
1192 549 989.9964599609375 208 217 232
1354 549 1078.1229248046875 195 193 214
1368 549 1086.625 196 194 215
1369 549 1087.5701904296875 196 197 215
1370 549 1088.5155029296875 199 202 221
1371 549 1089.4608154296875 194 197 216
1375 549 1091.3519287109375 203 204 222
1380 549 1094.189208984375 204 209 228
1381 549 1095.1351318359375 202 207 226
1386 549 1097.02734375 199 206 222
1401 549 1106.4940185546875 203 211 224
1402 549 1107.441162109375 206 214 227
1732 549 1318.5758056640625 181 188 214
1733 549 1319.5396728515625 185 196 218
1734 549 1320.503662109375 171 183 205
1741 549 1325.324462890625 177 189 213
1748 549 1329.18212890625 184 196 220
1749 549 1330.1466064453125 183 193 218
1750 549 1331.1112060546875 181 193 217
1774 549 1347.5169677734375 188 215 234
1775 549 1348.482421875 181 208 227
1141 550 965.2445068359375 186 187 208
1146 550 968.0299682617188 185 186 206
1150 550 969.8876342773438 196 201 220
1155 550 971.745849609375 187 194 210
1166 550 977.3239135742188 200 207 223
1325 550 1062.42041015625 190 193 210
1330 550 1065.2474365234375 198 199 217
1335 550 1067.132568359375 197 198 216
1336 550 1068.0753173828125 194 195 213
1355 550 1079.3966064453125 200 207 223
1356 550 1080.3406982421875 198 204 220
1368 550 1086.9521484375 206 214 227
1369 550 1087.8970947265625 204 214 226
1370 550 1088.842041015625 204 213 228
1375 550 1091.6776123046875 209 215 229
1385 550 1096.405517578125 208 216 229
1692 550 1291.879638671875 179 183 208
1694 550 1293.8040771484375 179 192 211
1695 550 1294.766357421875 170 181 203
1700 550 1297.6536865234375 184 186 211
1701 550 1298.6162109375 183 187 212
1702 550 1299.5787353515625 173 177 204
1708 550 1302.4669189453125 171 178 204
1709 550 1303.4296875 168 174 200
1741 550 1325.5897216796875 189 210 227
1742 550 1326.5538330078125 188 209 226
1747 550 1328.482177734375 191 217 230
1116 551 953.5664672851562 179 180 200
1125 551 958.1983032226562 187 192 211
1129 551 959.1251220703125 191 192 212
1141 551 965.6168823242188 197 198 218
1142 551 966.5448608398438 195 198 217
1146 551 968.4012451171875 204 207 226
1150 551 970.2582397460938 202 209 227
1154 551 971.1868896484375 208 213 232
1155 551 972.11572265625 202 209 225
1301 551 1049.5799560546875 193 194 212
1306 551 1051.4609375 194 197 214
1325 551 1062.755859375 199 205 221
1326 551 1063.69775390625 197 200 217
1330 551 1065.58203125 210 213 230
1335 551 1067.4666748046875 204 207 224
1336 551 1068.4090576171875 204 207 224
1669 551 1276.7685546875 178 182 209
1670 551 1277.7296142578125 181 178 209
1694 551 1294.0765380859375 179 194 215
1695 551 1295.03857421875 176 191 212
1701 551 1298.8875732421875 190 196 218
1702 551 1299.8499755859375 190 196 220
1707 551 1301.77490234375 187 202 221
1708 551 1302.737548828125 193 206 225
1709 551 1303.7000732421875 189 200 222
1735 551 1322.0003662109375 200 222 235
1740 551 1324.8917236328125 204 226 240
1104 552 947.46875 181 184 203
1105 552 948.3933715820312 184 187 206
1116 552 953.9444580078125 198 204 220
1121 552 956.7219848632812 196 205 220
1125 552 958.574462890625 197 206 221
1129 552 959.5009155273438 205 212 228
1130 552 960.427490234375 200 207 225
1141 552 965.9901733398438 210 216 232
1277 552 1035.83203125 193 196 213
1287 552 1041.46435546875 193 199 213
1294 552 1045.2215576171875 198 204 218
1295 552 1046.1611328125 199 205 219
1301 552 1049.9205322265625 195 205 217
1306 552 1051.80078125 201 209 222
1324 552 1062.150634765625 205 215 227
1325 552 1063.0921630859375 204 214 226
1326 552 1064.0338134765625 202 210 223
1330 552 1065.91748046875 204 212 225
1335 552 1067.801513671875 204 210 224
1643 552 1259.7607421875 182 189 208
1644 552 1260.720458984375 180 185 205
1650 552 1263.5999755859375 180 186 208
1651 552 1264.56005859375 177 183 205
1668 552 1276.0845947265625 187 198 218
1669 552 1277.04541015625 191 202 222
1670 552 1278.0062255859375 185 189 214
1696 552 1296.2735595703125 192 210 230
1700 552 1298.1976318359375 199 215 230
1701 552 1299.15966796875 205 221 236
1702 552 1300.1219482421875 202 218 234
1709 552 1303.97119140625 205 224 238
1081 553 937.6934204101562 184 185 205
1085 553 939.5386962890625 185 188 207
1089 553 940.4616088867188 186 189 208
1090 553 941.3846435546875 183 184 204
1104 553 947.8502197265625 201 204 223
1105 553 948.7744750976562 205 208 227
1116 553 954.3233032226562 206 212 228
1120 553 956.1741333007812 201 210 225
1121 553 957.0997924804688 203 212 227
1129 553 959.8776245117188 202 209 225
1264 553 1028.67724609375 190 195 214
1277 553 1036.1781005859375 200 206 220
1278 553 1037.1162109375 205 208 225
1296 553 1047.443115234375 203 210 226
1301 553 1050.2618408203125 201 211 223
1305 553 1051.20166015625 206 214 227
1306 553 1052.1416015625 203 211 224
1632 553 1253.3271484375 183 185 208
1638 553 1257.163818359375 184 189 209
1643 553 1260.0421142578125 193 200 219
1668 553 1276.3624267578125 194 210 226
1670 553 1278.2835693359375 203 214 232
1702 553 1300.39453125 197 213 229
1908 553 1442.603515625 148 170 193
1913 553 1445.5130615234375 149 177 198
1915 553 1447.452880859375 152 177 197
1916 553 1448.4229736328125 152 168 193
712 554 800.624755859375 92 88 89
714 554 802.39892578125 122 121 116
1065 554 929.78759765625 177 182 201
1066 554 930.7083129882812 176 179 198
1080 554 937.157958984375 191 197 213
1081 554 938.0799560546875 191 197 213
1085 554 939.9244384765625 198 205 221
1089 554 940.8469848632812 200 209 224
1090 554 941.7695922851562 195 202 220
1237 554 1014.9881591796875 186 187 207
1250 554 1022.4719848632812 190 196 212
1251 554 1023.4080200195312 196 202 218
1255 554 1025.2803955078125 194 201 217
1259 554 1027.1533203125 202 208 224
1260 554 1028.0899658203125 200 207 223
1264 554 1029.0267333984375 201 210 225
1265 554 1029.963623046875 197 209 221
1600 554 1232.5323486328125 188 189 210
1601 554 1233.48974609375 181 179 201
1606 554 1236.3624267578125 196 199 218
1613 554 1240.1934814453125 187 189 210
1638 554 1257.4466552734375 191 204 220
1652 554 1266.0809326171875 195 211 226
1905 554 1439.939208984375 158 173 202
1907 554 1441.8782958984375 159 181 205
1908 554 1442.847900390625 151 173 197
1909 554 1443.8175048828125 154 174 199
1914 554 1446.7266845703125 152 181 199
1915 554 1447.6964111328125 146 173 192
1916 554 1448.666259765625 160 182 203
712 555 801.08740234375 82 80 81
713 555 801.9738159179688 99 95 92
714 555 802.8605346679688 125 124 119
715 555 803.7474975585938 128 129 124
1046 555 921.9028930664062 181 184 203
1047 555 922.82177734375 176 179 198
1055 555 925.5792846679688 178 179 199
1056 555 926.498779296875 180 181 201
1061 555 929.25830078125 199 204 223
1065 555 930.178466796875 192 197 216
1066 555 931.0988159179688 196 201 220
1080 555 937.5457153320312 205 212 228
1082 555 939.38916015625 200 207 223
1085 555 940.3110961914062 206 213 229
1221 555 1006.9364624023438 180 181 201
1236 555 1014.40869140625 197 198 216
1237 555 1015.34326171875 197 198 216
1238 555 1016.2780151367188 199 200 218
1249 555 1021.888916015625 199 205 221
1250 555 1022.8245239257812 199 206 222
1251 555 1023.76025390625 207 214 230
1259 555 1027.5042724609375 208 216 229
1260 555 1028.4405517578125 208 216 229
1264 555 1029.376953125 207 216 231
1576 555 1216.5599365234375 196 194 216
1577 555 1217.515869140625 194 192 214
1594 555 1228.9935302734375 196 197 218
1601 555 1233.77880859375 195 196 216
1606 555 1236.6507568359375 199 206 224
1607 555 1237.608154296875 200 207 225
1612 555 1239.5233154296875 202 207 227
1613 555 1240.48095703125 202 209 227
1631 555 1252.9365234375 209 222 238
1632 555 1253.8951416015625 210 223 239
1638 555 1257.7301025390625 195 213 227
1861 555 1409.1884765625 159 174 205
1870 555 1415.965087890625 161 172 200
1872 555 1417.901611328125 166 180 209
1878 555 1420.8067626953125 149 176 197
1879 555 1421.7752685546875 144 171 192
1880 555 1422.7437744140625 151 175 201
1908 555 1443.0928955078125 160 187 208
1914 555 1446.970947265625 168 200 215
1915 555 1447.9405517578125 167 196 212
1916 555 1448.9102783203125 161 188 205
712 556 801.551025390625 95 93 94
713 556 802.4368896484375 112 108 107
714 556 803.3231201171875 129 128 124
1023 556 912.2066650390625 176 178 199
1024 556 913.1232299804688 167 172 192
1028 556 914.9568481445312 170 175 195
1031 556 914.9568481445312 180 185 204
1032 556 915.8739013671875 177 184 203
1046 556 922.2982177734375 190 199 214
1056 556 926.89208984375 191 194 213
