ply
format ascii 1.0
element vertex 1318
property float x
property float y
property float z
property float red
property float green
property float blue
end_header
776 836 812.5767822265625 134 24 35
777 836 813.2957763671875 134 22 34
788 836 816.1776733398438 137 27 38
795 836 817.6221923828125 135 25 36
796 836 818.3452758789062 129 22 32
801 836 820.5181274414062 134 28 38
805 836 821.2435913085938 140 34 44
806 836 821.9696044921875 137 32 39
807 836 822.6961669921875 134 29 36
819 836 826.3377075195312 142 35 45
820 836 827.0676879882812 132 22 31
824 836 828.5294189453125 133 26 34
827 836 828.5294189453125 137 27 36
829 836 829.9933471679688 141 30 39
835 836 831.4595336914062 136 25 34
836 836 832.1934814453125 138 29 35
840 836 832.927978515625 141 27 37
841 836 833.6630249023438 132 21 30
844 836 834.3985595703125 135 25 34
846 836 835.8713989257812 140 29 38
851 836 837.3463745117188 145 34 43
855 836 838.8236083984375 137 27 38
859 836 840.3029174804688 135 23 35
882 836 848.4774780273438 136 30 42
912 836 861.7006225585938 138 31 41
926 836 866.9769287109375 147 41 53
971 836 885.124267578125 124 54 78
972 836 885.8905029296875 118 48 72
988 836 892.807373046875 133 70 101
1014 836 903.6398315429688 161 128 159
1015 836 904.4169311523438 171 140 171
1050 836 922.0721435546875 87 56 72
1347 836 1164.280517578125 72 71 79
1366 836 1174.7872314453125 175 169 195
1367 836 1175.6640625 177 173 196
1368 836 1176.5411376953125 174 172 196
1603 836 1314.52880859375 170 175 197
1605 836 1316.33203125 178 184 206
1606 836 1317.23388671875 174 182 201
1607 836 1318.1358642578125 173 185 201
1608 836 1319.0379638671875 173 181 200
1612 836 1320.842529296875 184 196 210
1613 836 1321.7451171875 178 190 202
1614 836 1322.647705078125 186 195 210
1620 836 1326.259765625 181 199 211
1807 836 1446.8673095703125 159 181 204
1808 836 1447.785888671875 163 180 206
1809 836 1448.70458984375 151 167 193
1814 836 1451.4613037109375 158 187 205
1820 836 1455.138427734375 163 189 206
695 837 787.7626342773438 127 22 27
701 837 789.162841796875 129 22 28
705 837 789.8638916015625 126 21 28
706 837 790.5656127929688 130 21 27
710 837 791.970947265625 131 24 30
713 837 794.083740234375 130 21 27
715 837 793.3788452148438 131 22 28
718 837 794.083740234375 130 21 27
720 837 794.083740234375 134 25 30
721 837 794.789306640625 135 26 31
722 837 795.4954223632812 134 23 30
724 837 794.789306640625 138 29 35
726 837 796.2022094726562 136 25 34
733 837 797.61767578125 140 29 36
738 837 799.74560546875 134 20 30
772 837 811.8583374023438 135 24 33
775 837 811.8583374023438 134 23 32
790 837 816.8702392578125 130 23 31
796 837 819.0360107421875 132 22 33
799 837 821.20703125 133 28 35
805 837 821.931884765625 138 32 42
820 837 827.7511596679688 135 28 36
823 837 828.4811401367188 134 27 35
825 837 829.9427490234375 136 29 37
826 837 828.4811401367188 138 31 39
832 837 831.4066162109375 138 27 36
837 837 833.6066284179688 136 27 33
846 837 836.5476684570312 136 25 34
854 837 838.7592163085938 141 29 41
855 837 839.4974975585938 144 32 44
856 837 840.2362670898438 145 35 46
861 837 842.4559326171875 139 29 40
863 837 841.7155151367188 141 31 42
865 837 843.1968994140625 142 32 43
869 837 844.680419921875 134 24 35
873 837 845.4229736328125 130 22 35
874 837 846.1660766601562 135 25 38
875 837 846.24169921875 129 19 32
881 837 848.3984985351562 131 25 37
883 837 849.889404296875 128 22 34
914 837 862.360107421875 138 31 41
966 837 884.237548828125 132 41 59
973 837 887.2992553710938 118 31 50
982 837 891.1369018554688 124 41 61
988 837 893.4450073242188 125 45 70
1013 837 903.4937744140625 138 83 115
1014 837 904.2698974609375 145 96 125
1348 837 1165.64013671875 88 84 98
1380 837 1183.1639404296875 171 174 191
1381 837 1184.042236328125 182 187 206
1382 837 1184.920654296875 177 186 201
1383 837 1185.79931640625 180 189 204
1384 837 1186.6781005859375 177 184 202
1387 837 1187.55712890625 186 196 208
1388 837 1188.4364013671875 194 206 218
1389 837 1189.3157958984375 170 182 194
1393 837 1191.0751953125 193 205 217
1394 837 1191.955078125 200 208 221
1613 837 1322.1759033203125 169 176 194
1614 837 1323.0782470703125 173 178 197
1618 837 1324.8834228515625 174 186 200
1619 837 1325.7861328125 173 185 199
1620 837 1326.6890869140625 173 187 200
1625 837 1328.495361328125 181 197 212
1626 837 1329.398681640625 166 182 197
1627 837 1330.30224609375 165 181 196
1821 837 1456.451171875 161 181 205
1827 837 1459.209716796875 163 188 208
1828 837 1460.12939453125 155 177 200
705 838 790.5770263671875 127 22 29
715 838 794.0888061523438 138 29 35
720 838 794.7930297851562 136 30 34
724 838 795.4979858398438 135 26 32
734 838 799.0319213867188 135 21 31
738 838 800.4498901367188 139 25 33
741 838 801.1597900390625 134 22 34
776 838 813.2723999023438 135 20 33
778 838 814.7097778320312 139 25 35
794 838 817.5916137695312 132 20 32
796 838 819.0360107421875 131 21 30
804 838 821.8966064453125 138 33 40
818 838 826.9782104492188 136 31 38
821 838 829.1646118164062 135 28 38
823 838 829.1646118164062 139 32 40
825 838 830.6250610351562 139 32 40
829 838 831.3561401367188 137 27 36
840 838 834.2859497070312 140 26 36
842 838 835.754150390625 136 25 32
845 838 836.4890747070312 138 28 37
846 838 837.224609375 136 26 35
847 838 837.9606323242188 140 29 38
851 838 838.6972045898438 139 28 37
852 838 839.434326171875 149 38 47
856 838 840.9102172851562 140 30 41
858 838 840.9102172851562 142 30 42
860 838 842.3882446289062 140 28 40
862 838 841.6489868164062 139 27 39
863 838 842.3882446289062 143 32 41
864 838 843.1281127929688 138 28 39
865 838 843.8684692382812 136 26 37
874 838 846.8352661132812 139 29 40
880 838 848.3218994140625 133 26 36
883 838 850.5557250976562 134 27 37
886 838 850.5557250976562 136 29 39
887 838 851.3013305664062 131 24 34
889 838 852.7942504882812 132 25 35
892 838 853.5414428710938 136 30 40
920 838 865.2750854492188 137 31 41
928 838 868.28857421875 139 33 43
940 838 873.5811157226562 140 34 44
981 838 891.0089721679688 133 32 48
982 838 891.77685546875 127 29 44
986 838 892.5452270507812 125 27 42
999 838 898.70849609375 120 34 59
1005 838 900.2538452148438 125 45 72
1020 838 908.0071411132812 122 57 87
1021 838 908.784912109375 116 51 81
1047 838 921.2871704101562 100 61 80
1349 838 1166.5145263671875 119 120 138
1393 838 1191.5506591796875 172 175 192
1394 838 1192.4302978515625 181 179 200
1398 838 1193.31005859375 188 191 206
1399 838 1194.1900634765625 187 193 205
1626 838 1329.8277587890625 168 172 197
1642 838 1339.7705078125 169 177 198
1643 838 1340.6751708984375 169 180 198
1644 838 1341.580078125 176 189 205
1645 838 1342.4849853515625 181 194 210
1649 838 1344.29541015625 184 201 211
1650 838 1345.20068359375 184 200 213
1651 838 1346.106201171875 183 199 214
1656 838 1348.8236083984375 189 205 218
1657 838 1349.7296142578125 190 206 219
1848 838 1474.326904296875 163 185 208
1857 838 1480.7772216796875 164 191 210
709 839 792.6922607421875 128 21 27
714 839 794.0963134765625 132 23 29
720 839 795.5029907226562 128 22 26
726 839 797.61767578125 131 20 29
729 839 798.3238525390625 138 24 34
733 839 799.0306396484375 136 25 34
734 839 799.7380981445312 139 28 37
737 839 800.4461059570312 142 28 38
740 839 801.15478515625 136 24 36
741 839 801.8640747070312 130 18 30
746 839 803.2844848632812 132 21 30
747 839 803.9956665039062 134 23 32
750 839 804.7073974609375 135 24 33
751 839 805.4197387695312 129 18 25
753 839 804.7073974609375 136 25 34
762 839 808.2753295898438 131 17 27
769 839 811.1035766601562 136 22 32
782 839 815.40478515625 134 23 32
791 839 818.2841796875 134 24 35
794 839 818.2841796875 136 24 36
795 839 819.0054931640625 134 23 32
802 839 823.3103637695312 139 34 41
805 839 822.6207885742188 140 33 41
820 839 829.1199951171875 133 26 36
821 839 829.8487548828125 135 28 38
824 839 830.578125 135 28 36
826 839 829.8487548828125 139 32 40
827 839 830.578125 138 31 39
830 839 832.7694702148438 138 28 37
835 839 834.9658813476562 141 30 39
842 839 836.4329223632812 142 31 38
844 839 836.4329223632812 135 25 34
846 839 837.9021606445312 132 22 31
847 839 838.6375732421875 131 20 29
856 839 841.5848388671875 145 35 46
857 839 842.322998046875 146 36 47
860 839 843.0617065429688 138 26 38
862 839 842.322998046875 136 25 34
863 839 843.0617065429688 140 29 38
864 839 843.8009033203125 139 29 40
874 839 847.5051879882812 135 25 36
875 839 848.2476196289062 138 28 39
878 839 848.9906005859375 138 28 39
882 839 850.4780883789062 139 29 40
885 839 850.4780883789062 137 30 40
886 839 851.22265625 132 25 35
887 839 851.9677124023438 137 30 40
888 839 852.7133178710938 140 33 43
896 839 854.9531860351562 132 25 35
897 839 855.7008666992188 137 27 38
898 839 856.4490356445312 138 23 36
911 839 860.9489135742188 142 35 45
912 839 861.7006225585938 143 37 47
936 839 872.720458984375 132 26 38
993 839 897.0311889648438 138 33 48
997 839 897.8017578125 133 28 43
998 839 898.57275390625 130 27 46
1009 839 901.6612548828125 126 33 54
1011 839 905.5318603515625 130 32 55
1013 839 904.7568969726562 123 30 51
1014 839 905.5318603515625 127 35 58
1015 839 906.307373046875 125 36 58
1016 839 907.083251953125 124 39 60
1025 839 910.191162109375 112 33 55
1348 839 1166.1260986328125 90 90 102
1413 839 1202.590576171875 191 199 212
1414 839 1203.4720458984375 191 199 210
1415 839 1204.353759765625 181 189 200
1419 839 1206.1177978515625 201 209 222
1420 839 1207.0 192 202 214
1650 839 1345.62548828125 170 183 199
1651 839 1346.53076171875 170 181 199
1656 839 1349.2471923828125 171 185 198
1657 839 1350.1529541015625 166 182 195
1662 839 1351.96484375 176 196 205
1663 839 1352.8709716796875 176 199 207
1874 839 1492.231201171875 155 175 199
1875 839 1493.154052734375 162 184 205
1876 839 1494.0770263671875 160 187 204
693 840 787.7982177734375 130 25 32
694 840 788.4954223632812 127 23 30
714 840 794.8081665039062 131 24 32
720 840 796.2135620117188 130 23 29
721 840 796.9171752929688 130 23 29
725 840 797.6214599609375 129 22 28
726 840 798.3263549804688 131 21 30
737 840 801.1522827148438 132 18 28
740 840 801.8603515625 136 26 35
741 840 802.5689697265625 136 26 35
743 840 801.8603515625 138 28 37
744 840 802.5689697265625 136 25 34
745 840 803.2782592773438 133 22 31
747 840 804.69873046875 129 19 28
752 840 804.69873046875 135 24 33
753 840 805.4098510742188 136 25 34
754 840 806.12158203125 134 22 34
762 840 808.9746704101562 130 18 30
794 840 818.9774169921875 134 24 33
795 840 819.6981201171875 135 25 34
801 840 822.5867919921875 144 34 45
805 840 823.3103637695312 142 32 41
819 840 829.0778198242188 130 20 31
820 840 829.1199951171875 139 29 38
821 840 830.5335693359375 137 27 36
829 840 832.721435546875 138 26 38
830 840 833.4518432617188 141 30 39
837 840 835.646484375 140 28 40
841 840 836.3790893554688 133 22 31
842 840 837.1123046875 138 27 36
843 840 837.8460693359375 136 26 35
851 840 840.0505981445312 141 31 40
852 840 840.7865600585938 143 32 41
853 840 841.5230102539062 145 34 43
856 840 842.2600708007812 144 34 43
859 840 842.9976196289062 133 23 32
860 840 843.7357177734375 134 23 32
861 840 844.474365234375 144 33 42
862 840 842.9976196289062 140 29 38
863 840 843.7357177734375 135 24 33
864 840 844.474365234375 139 29 38
865 840 845.2135620117188 140 30 39
869 840 846.6935424804688 137 27 36
874 840 848.1756591796875 137 27 36
876 840 849.659912109375 137 26 35
878 840 849.659912109375 136 26 35
882 840 851.1463012695312 135 25 36
885 840 851.1463012695312 138 31 41
887 840 852.634765625 134 24 35
888 840 853.3797607421875 135 25 36
889 840 854.1253051757812 140 30 41
893 840 855.617919921875 139 32 40
896 840 855.617919921875 135 25 36
911 840 861.6089477539062 137 30 40
912 840 862.360107421875 138 32 44
917 840 864.61669921875 141 35 45
919 840 863.864013671875 139 29 40
920 840 864.61669921875 141 31 40
944 840 875.6443481445312 136 28 41
989 840 896.1305541992188 144 34 47
1000 840 900.7518920898438 135 29 43
1013 840 905.389404296875 137 32 47
1014 840 906.1638793945312 140 35 52
1015 840 906.9387817382812 137 34 51
1016 840 907.7141723632812 134 33 49
1017 840 908.4899291992188 130 29 45
1022 840 910.8199462890625 137 36 54
1026 840 911.5974731445312 135 34 50
1028 840 913.1538696289062 131 32 50
1032 840 914.7119750976562 131 38 56
1415 840 1204.82568359375 187 184 203
1420 840 1207.470947265625 182 185 204
1425 840 1210.1177978515625 183 193 205
1426 840 1211.0003662109375 179 188 203
1430 840 1211.88330078125 192 201 216
1431 840 1212.7662353515625 186 196 208
1432 840 1213.6494140625 187 196 211
1433 840 1214.5328369140625 193 202 217
1657 840 1350.576904296875 173 181 202
1682 840 1365.9901123046875 183 205 216
1884 840 1500.0003662109375 152 179 200
1892 840 1504.6181640625 161 187 204
700 841 792.0050659179688 127 22 27
704 841 791.305908203125 130 25 32
705 841 792.0050659179688 129 24 31
733 841 800.4461059570312 137 30 36
737 841 801.8590698242188 139 28 37
740 841 802.5665283203125 131 24 32
747 841 805.4024047851562 133 26 34
749 841 805.4024047851562 130 23 31
750 841 806.1129150390625 135 25 34
754 841 806.8240356445312 136 26 37
755 841 807.5357666015625 139 29 40
766 841 810.3887939453125 135 25 34
767 841 811.1035766601562 134 27 35
768 841 811.8189697265625 136 26 37
774 841 812.534912109375 139 29 40
796 841 821.112060546875 135 25 34
798 841 822.55517578125 134 24 35
800 841 822.55517578125 133 23 34
802 841 824.0006103515625 140 33 41
806 841 824.7241821289062 134 24 35
811 841 826.8984375 141 31 42
826 841 831.218994140625 132 22 33
827 841 831.9471435546875 135 25 36
828 841 832.67578125 138 26 38
829 841 833.4050903320312 134 22 34
834 841 835.59619140625 143 32 41
839 841 837.7923583984375 137 26 35
840 841 838.5255126953125 140 29 38
843 841 838.5255126953125 138 28 37
844 841 839.2592163085938 136 24 36
847 841 839.9934692382812 143 29 39
849 841 839.2592163085938 141 30 39
851 841 840.728271484375 137 27 36
853 841 842.1995239257812 141 31 40
856 841 842.9359130859375 142 32 41
857 841 843.6729125976562 142 32 41
862 841 843.6729125976562 144 33 42
863 841 844.4104614257812 142 31 40
864 841 845.1484985351562 140 30 39
870 841 848.1061401367188 143 33 42
874 841 848.8468627929688 135 25 34
875 841 849.588134765625 136 26 35
876 841 850.3299560546875 136 26 35
878 841 850.3299560546875 135 25 34
881 841 851.072265625 132 22 33
882 841 851.8151245117188 131 21 32
883 841 852.5585327148438 140 30 41
887 841 853.3024291992188 140 28 40
888 841 854.0468139648438 142 32 43
889 841 854.7918090820312 137 27 38
890 841 855.5372314453125 137 27 38
896 841 856.2832641601562 139 27 39
897 841 857.0297241210938 141 29 41
898 841 857.7767944335938 133 21 33
900 841 859.2723388671875 140 30 41
909 841 860.77001953125 138 28 39
910 841 861.5195922851562 137 27 38
911 841 862.2696533203125 138 32 42
912 841 863.020263671875 144 38 50
916 841 864.5230102539062 142 35 45
921 841 866.0277099609375 143 33 42
927 841 869.0431518554688 137 26 35
940 841 872.928955078125 139 29 40
976 841 889.994384765625 143 33 46
977 841 890.759765625 140 30 43
1013 841 906.0226440429688 138 28 41
1014 841 906.7965698242188 142 32 45
1015 841 907.5709228515625 141 31 44
1021 841 910.6728515625 144 33 49
1026 841 912.2263793945312 147 35 49
1030 841 913.7816772460938 140 29 45
1432 841 1214.11865234375 168 173 192
1433 841 1215.0015869140625 170 175 194
1446 841 1222.0723876953125 197 210 219
1682 841 1366.409912109375 166 183 199
1683 841 1367.3175048828125 165 182 198
1704 841 1380.03662109375 180 197 213
1705 841 1380.946044921875 183 202 217
715 842 796.2223510742188 130 23 29
719 842 797.6277465820312 133 24 30
721 842 797.6277465820312 139 30 36
735 842 802.5665283203125 138 29 35
737 842 802.5665283203125 129 19 28
738 842 803.2733154296875 135 25 34
740 842 803.2733154296875 137 30 36
746 842 805.3973999023438 137 27 36
747 842 806.106689453125 137 30 38
748 842 806.8165893554688 132 27 32
752 842 806.106689453125 134 27 35
753 842 806.8165893554688 133 26 36
764 842 809.6622924804688 136 29 37
765 842 810.375244140625 137 30 36
766 842 811.0887451171875 133 26 32
770 842 812.5177001953125 135 28 38
774 842 813.2330322265625 136 26 37
776 842 814.6655883789062 136 26 35
784 842 817.5377807617188 140 30 39
791 842 818.9774169921875 138 31 41
817 842 828.3121337890625 136 29 39
818 842 829.0380249023438 135 28 38
821 842 831.218994140625 132 22 31
828 842 833.3606567382812 135 25 34
838 842 837.0597534179688 140 28 40
840 842 836.3276977539062 137 25 37
842 842 837.7923583984375 141 31 40
845 842 839.20556640625 133 22 31
847 842 840.67236328125 137 22 35
848 842 841.4065551757812 135 21 31
851 842 841.4065551757812 134 23 32
852 842 842.1412963867188 131 20 29
862 842 844.348876953125 139 28 37
864 842 845.8232421875 135 23 35
865 842 846.561279296875 139 27 39
870 842 848.778564453125 132 22 31
873 842 848.778564453125 138 28 37
874 842 849.5186767578125 142 33 39
875 842 850.2593994140625 138 29 35
876 842 851.0006103515625 137 27 36
878 842 851.0006103515625 139 32 40
879 842 851.7423095703125 138 31 39
881 842 851.7423095703125 139 29 38
882 842 852.484619140625 143 32 41
883 842 853.2274169921875 141 31 40
884 842 853.970703125 142 32 41
887 842 853.970703125 138 28 37
888 842 854.714599609375 139 29 38
889 842 855.4589233398438 145 35 44
893 842 856.94921875 136 24 36
897 842 857.6951904296875 137 27 38
898 842 858.4415893554688 134 24 35
902 842 859.93603515625 136 26 37
910 842 862.1815185546875 133 23 32
912 842 863.6810913085938 136 30 40
918 842 864.4315795898438 143 32 41
919 842 865.1826171875 144 33 42
920 842 865.9342041015625 136 26 37
921 842 866.6862182617188 135 25 36
925 842 868.1917724609375 141 26 39
936 842 872.720458984375 138 27 36
937 842 873.4769897460938 140 29 38
940 842 874.2339477539062 137 26 35
971 842 888.3468017578125 145 37 50
1013 842 906.656494140625 143 33 44
1044 842 921.425537109375 114 26 40
1440 842 1219.8873291015625 172 175 194
1705 842 1381.362060546875 166 176 201
1706 842 1382.2713623046875 176 187 207
1708 842 1384.09033203125 161 172 194
1709 842 1385.0 165 175 200
1713 842 1386.8197021484375 169 186 206
1714 842 1387.7298583984375 171 188 206
1715 842 1388.6400146484375 167 182 201
694 843 789.2122802734375 132 25 31
716 843 797.6365356445312 133 26 32
718 843 797.6365356445312 129 20 26
722 843 799.0419311523438 135 26 32
730 843 801.15478515625 141 32 38
734 843 802.5689697265625 140 33 39
740 843 803.980712890625 129 20 26
741 843 804.6875 135 26 32
742 843 805.3949584960938 131 21 30
746 843 806.1029663085938 133 23 32
750 843 807.5208740234375 128 23 28
751 843 808.2307739257812 132 27 32
768 843 813.217041015625 129 25 32
772 843 812.5029296875 130 26 33
775 843 814.6471557617188 127 22 29
776 843 815.3630981445312 131 26 33
783 843 817.5145263671875 137 32 39
787 843 818.2328491210938 138 31 39
790 843 818.9517822265625 133 28 35
791 843 819.6712646484375 136 32 39
818 843 829.725830078125 134 27 37
827 843 832.632568359375 139 29 38
828 843 833.3606567382812 138 28 37
841 843 837.7410278320312 137 25 37
844 843 838.4730224609375 133 22 31
846 843 840.6188354492188 138 23 36
862 843 845.0254516601562 132 21 30
864 843 846.4986572265625 142 30 42
871 843 850.191162109375 135 25 34
874 843 850.191162109375 137 27 36
875 843 850.9312744140625 144 34 43
878 843 851.671875 132 25 33
879 843 852.4130249023438 141 34 42
882 843 853.1547241210938 137 26 35
883 843 853.89697265625 138 27 36
887 843 854.6397094726562 135 25 34
888 843 855.3829345703125 139 29 38
889 843 856.1267700195312 137 27 36
891 843 857.6159057617188 141 30 39
893 843 857.6159057617188 147 32 45
894 843 858.3612060546875 141 29 41
910 843 862.8441162109375 138 28 37
912 843 864.342529296875 138 32 42
917 843 866.5939331054688 151 37 47
918 843 867.3453979492188 142 31 40
920 843 866.5939331054688 140 28 40
921 843 867.3453979492188 136 24 36
922 843 868.0973510742188 144 32 44
935 843 872.61962890625 146 36 45
936 843 873.3750610351562 142 31 40
940 843 874.887451171875 140 29 38
941 843 875.6443481445312 141 30 39
946 843 877.1596069335938 136 26 35
948 843 878.6768188476562 138 28 37
950 843 880.1959838867188 138 28 37
951 843 880.956298828125 143 33 42
966 843 885.528076171875 142 36 46
971 843 888.9932250976562 141 33 46
979 843 892.0476684570312 138 31 41
986 843 895.1094970703125 141 31 42
1467 843 1235.3983154296875 188 196 209
1468 843 1236.2847900390625 195 201 213
1469 843 1237.17138671875 189 197 208
1474 843 1239.832275390625 198 208 218
1475 843 1240.7196044921875 191 201 213
1714 843 1388.1444091796875 170 182 206
1715 843 1389.0543212890625 162 172 197
1720 843 1390.87451171875 178 194 209
1721 843 1391.7847900390625 177 190 207
1722 843 1392.6951904296875 158 169 191
693 844 789.2338256835938 136 29 35
725 844 799.7531127929688 133 22 29
726 844 800.4561157226562 130 19 26
734 844 802.5689697265625 142 33 39
745 844 805.3949584960938 131 21 30
747 844 807.5172119140625 137 30 38
750 844 808.225830078125 132 27 32
751 844 808.9351196289062 128 23 28
772 844 815.345947265625 126 27 32
775 844 815.345947265625 127 28 33
780 844 817.4937133789062 128 21 29
783 844 818.2108764648438 127 24 28
786 844 818.2108764648438 128 21 31
788 844 819.6468505859375 130 25 32
790 844 819.6468505859375 131 30 36
791 844 820.3657836914062 127 26 32
798 844 823.2472534179688 135 30 37
799 844 823.9690551757812 130 25 32
800 844 823.2472534179688 132 26 36
801 844 823.9690551757812 138 32 42
802 844 824.6914672851562 140 33 43
804 844 823.9690551757812 135 28 36
805 844 824.6914672851562 137 30 38
807 844 826.1380004882812 135 30 37
822 844 831.8653564453125 134 27 35
840 844 837.6920776367188 135 24 33
847 844 841.3518676757812 138 24 34
849 844 840.6188354492188 141 27 37
851 844 842.0855102539062 140 26 36
860 844 846.4384155273438 142 28 38
874 844 850.8642578125 139 29 40
878 844 852.3438110351562 129 22 32
880 844 853.8255004882812 134 27 37
882 844 853.8255004882812 141 31 42
883 844 854.567138671875 134 24 33
885 844 853.8255004882812 140 29 38
888 844 856.052001953125 139 27 39
897 844 859.0279541015625 138 28 39
898 844 859.7732543945312 137 27 36
899 844 860.51904296875 139 29 38
900 844 861.2653198242188 140 28 40
910 844 863.5073852539062 138 28 39
912 844 865.004638671875 143 37 47
915 844 865.7540283203125 149 39 48
916 844 866.50390625 145 34 43
920 844 867.2542724609375 134 23 32
921 844 868.0051879882812 145 34 43
935 844 873.2754516601562 146 35 44
936 844 874.0303344726562 140 29 38
937 844 874.7857055664062 137 26 35
939 844 874.7857055664062 140 29 38
941 844 876.2979125976562 144 33 42
946 844 877.8120727539062 138 28 39
947 844 878.5698852539062 135 25 36
948 844 879.328125 137 26 35
949 844 880.0869140625 138 27 36
953 844 881.6058959960938 143 33 44
962 844 884.649658203125 137 27 38
963 844 885.4117431640625 143 33 44
993 844 899.5870971679688 141 35 47
1348 844 1167.587646484375 84 80 95
1350 844 1169.3336181640625 119 124 143
1468 844 1236.747802734375 181 179 200
1473 844 1239.4071044921875 188 191 206
1474 844 1240.2939453125 187 190 205
1475 844 1241.180908203125 178 181 198
1479 844 1242.0679931640625 191 199 210
1480 844 1242.955322265625 182 188 202
1481 844 1243.8428955078125 177 183 197
1722 844 1393.109130859375 157 164 193
1745 844 1407.6878662109375 164 182 202
1746 844 1408.5999755859375 168 191 205
1747 844 1409.5123291015625 163 189 202
1748 844 1410.4248046875 164 187 201
694 845 790.6478271484375 134 28 32
699 845 792.7376708984375 129 20 26
706 845 794.1340942382812 137 28 34
730 845 802.573974609375 139 30 35
749 845 807.5172119140625 136 29 37
751 845 808.9351196289062 127 23 30
781 845 818.9078369140625 124 25 30
792 845 821.77978515625 131 30 36
798 845 823.93994140625 127 23 30
803 845 826.1053466796875 141 34 44
806 845 826.1053466796875 135 30 37
818 845 829.725830078125 132 26 36
821 845 831.905029296875 136 31 38
851 845 842.7650756835938 140 26 36
853 845 844.2327880859375 144 33 42
855 845 844.2327880859375 144 34 45
859 845 845.70263671875 141 30 39
863 845 846.4384155273438 136 24 36
864 845 847.1747436523438 145 30 43
870 845 850.1253051757812 134 24 35
873 845 850.7996215820312 133 23 34
874 845 850.8642578125 141 29 41
876 845 853.0164184570312 135 23 35
883 845 855.2379760742188 136 26 37
887 845 855.9795532226562 135 25 36
888 845 856.7216796875 132 20 32
889 845 857.4642944335938 143 31 43
890 845 858.2074584960938 132 20 32
898 845 860.4400024414062 142 32 41
910 845 864.1712646484375 138 28 39
911 845 864.9190673828125 139 29 40
912 845 865.6673583984375 136 29 39
916 845 867.16552734375 145 34 43
919 845 867.16552734375 139 28 37
920 845 867.9153442382812 146 32 42
921 845 868.6656494140625 147 33 43
936 845 874.6862182617188 139 28 37
939 845 875.4410400390625 141 30 39
941 845 876.9520874023438 144 33 42
944 845 876.9520874023438 141 31 42
945 845 877.7083740234375 139 29 40
946 845 878.4651489257812 138 28 39
947 845 879.222412109375 139 27 39
948 845 879.9801025390625 136 25 34
949 845 880.7383422851562 144 33 42
953 845 882.2562255859375 143 31 43
955 845 882.2562255859375 139 29 40
962 845 885.2976684570312 139 27 39
963 845 886.0592651367188 139 27 39
971 845 888.3468017578125 135 23 35
972 845 889.1102294921875 139 27 39
973 845 889.8741455078125 144 32 44
1019 845 911.0181274414062 145 38 48
1347 845 1167.2039794921875 55 54 62
1349 845 1168.94873046875 88 85 102
1501 845 1255.852294921875 191 201 213
1502 845 1256.7418212890625 198 210 222
1503 845 1257.6314697265625 189 201 213
1752 845 1412.6588134765625 163 181 201
1753 845 1413.5714111328125 166 187 206
1754 845 1414.4840087890625 158 179 198
1759 845 1416.3096923828125 163 186 202
1760 845 1417.22265625 168 191 207
1761 845 1418.1357421875 163 186 202
1762 845 1419.0489501953125 150 173 189
692 846 789.9778442382812 127 20 26
693 846 790.671875 132 25 31
694 846 791.3665161132812 131 26 31
699 846 793.4544677734375 130 21 27
711 846 796.9473266601562 132 23 29
729 846 801.1597900390625 137 26 33
750 846 808.931396484375 138 31 39
795 846 822.4749145507812 127 21 31
797 846 823.9132080078125 131 25 35
798 846 824.6332397460938 128 23 30
801 846 825.3538818359375 138 31 41
805 846 826.0750732421875 128 23 30
807 846 827.5191650390625 131 27 34
818 846 830.4143676757812 129 25 34
820 846 831.8653564453125 133 29 38
828 846 834.046142578125 136 29 39
854 846 844.1782836914062 147 37 48
860 846 847.11572265625 137 26 35
863 846 847.11572265625 141 29 41
864 846 847.8513793945312 142 31 40
872 846 850.061767578125 139 29 40
874 846 851.5380249023438 139 27 39
876 846 853.0164184570312 152 41 50
877 846 852.2769775390625 143 32 41
878 846 853.0164184570312 136 26 35
887 846 856.6504516601562 138 28 37
888 846 857.3919677734375 141 31 42
893 846 859.6196899414062 140 26 36
897 846 860.36328125 131 24 34
898 846 861.107421875 139 29 38
902 846 862.5972290039062 135 25 34
910 846 864.8358154296875 140 30 39
911 846 865.5830688476562 142 32 41
912 846 866.3307495117188 146 39 49
914 846 867.8277587890625 149 39 50
917 846 868.5770263671875 150 38 50
919 846 867.8277587890625 140 29 38
920 846 868.5770263671875 148 37 44
921 846 869.3267211914062 144 33 40
926 846 871.5790405273438 146 35 44
937 846 876.0970458984375 143 29 39
942 846 878.3626708984375 141 30 39
945 846 878.3626708984375 139 28 37
946 846 879.118896484375 141 30 39
947 846 879.8755493164062 143 29 39
949 846 881.390380859375 144 29 42
950 846 882.1484985351562 144 32 44
957 846 884.42578125 137 25 37
958 846 885.1858520507812 143 31 43
960 846 884.42578125 141 29 41
961 846 885.1858520507812 142 30 42
967 846 888.2308349609375 143 33 44
972 846 889.7561645507812 143 31 43
973 846 890.51953125 145 33 45
982 846 894.3433227539062 134 27 37
1023 846 914.7485961914062 147 40 50
1032 846 917.8523559570312 147 42 49
1347 846 1167.6934814453125 59 58 66
1348 846 1168.5653076171875 64 62 75
1349 846 1169.4375 73 72 86
1367 846 1179.0440673828125 183 192 207
1368 846 1179.918701171875 189 198 213
1501 846 1256.3096923828125 180 181 199
1508 846 1260.75732421875 186 192 206
1509 846 1261.6473388671875 185 191 205
1514 846 1263.4278564453125 188 201 210
1515 846 1264.318359375 181 193 205
1516 846 1265.2091064453125 183 195 209
1762 846 1419.45654296875 150 167 193
1772 846 1426.7645263671875 166 187 206
1779 846 1431.335693359375 157 183 198
1787 846 1435.9097900390625 160 188 202
1788 846 1436.824951171875 163 184 203
690 847 791.3917846679688 128 18 27
691 847 792.0858764648438 131 21 30
695 847 792.7805786132812 134 29 34
703 847 795.5658569335938 131 22 28
714 847 797.6615600585938 129 18 25
717 847 798.3614501953125 133 22 29
718 847 799.0619506835938 137 26 33
725 847 800.46484375 137 26 35
735 847 803.9832153320312 137 26 32
801 847 826.0472412109375 139 32 42
802 847 826.767822265625 133 27 37
804 847 826.0472412109375 131 27 36
805 847 826.767822265625 125 24 32
818 847 831.1034545898438 125 25 33
823 847 833.279052734375 122 22 30
825 847 832.5532836914062 131 30 38
826 847 833.279052734375 138 34 43
827 847 834.00537109375 133 27 37
828 847 834.7322998046875 133 26 36
830 847 836.1878051757812 135 25 34
841 847 839.10546875 135 25 34
845 847 840.5676879882812 139 27 39
860 847 847.7935791015625 137 26 35
861 847 846.3250122070312 141 29 41
879 847 854.4290771484375 137 27 36
882 847 855.1690063476562 140 28 40
886 847 855.9094848632812 133 23 32
887 847 856.6504516601562 133 23 32
902 847 862.5972290039062 138 27 36
903 847 864.00927734375 140 30 39
910 847 865.5010375976562 143 32 41
916 847 868.4906616210938 142 30 42
917 847 869.2393188476562 144 32 44
918 847 869.988525390625 145 34 43
919 847 868.4906616210938 144 33 42
926 847 872.2390747070312 147 36 45
927 847 872.990234375 139 28 37
935 847 875.246826171875 151 37 47
937 847 876.753662109375 148 34 44
938 847 877.5078125 140 29 38
941 847 878.2625122070312 143 28 41
944 847 878.2625122070312 141 30 39
945 847 879.0176391601562 137 26 35
946 847 879.7732543945312 147 33 43
947 847 880.5293579101562 140 26 36
948 847 881.2860107421875 150 34 47
949 847 882.0430908203125 148 33 46
958 847 885.8357543945312 143 31 43
959 847 884.3172607421875 137 25 37
961 847 885.8357543945312 144 32 44
962 847 886.5957641601562 147 32 45
963 847 887.356201171875 143 28 41
966 847 888.1171264648438 138 26 38
972 847 890.4027099609375 151 39 51
973 847 891.16552734375 142 32 43
978 847 893.456787109375 134 28 40
983 847 895.752197265625 138 31 41
987 847 896.5182495117188 137 30 40
998 847 901.124267578125 142 36 46
1025 847 914.6064453125 140 33 43
1348 847 1169.05517578125 65 65 75
1367 847 1179.529541015625 176 179 198
1368 847 1180.4036865234375 175 180 199
1514 847 1263.88330078125 175 183 196
1516 847 1265.663818359375 180 187 203
1524 847 1271.0093994140625 189 199 208
1525 847 1271.90087890625 194 204 213
1526 847 1272.7926025390625 184 192 205
1530 847 1274.576416015625 199 211 223
1531 847 1275.468505859375 197 209 221
1788 847 1437.228271484375 154 170 193
1789 847 1438.1431884765625 161 176 199
1807 847 1450.048583984375 169 197 211
691 848 792.8057861328125 134 27 35
694 848 792.8057861328125 130 25 30
729 848 802.5814819335938 136 25 34
734 848 803.9881591796875 135 26 32
735 848 804.6925048828125 131 20 27
745 848 806.8091430664062 137 23 33
801 848 826.7412109375 142 35 45
823 848 833.967041015625 120 27 35
825 848 835.4190673828125 132 31 39
828 848 835.4190673828125 134 27 37
829 848 836.1459350585938 135 25 36
831 848 837.601318359375 140 33 43
837 848 839.0590209960938 140 30 41
841 848 839.7886352539062 132 22 33
842 848 840.5188598632812 133 23 32
862 848 847.7381591796875 137 27 36
882 848 855.8416748046875 140 30 39
888 848 858.0629272460938 138 26 40
889 848 858.8043823242188 131 19 33
898 848 861.7755126953125 137 25 37
900 848 863.26416015625 138 27 36
902 848 863.9317016601562 132 21 30
906 848 865.4212646484375 134 22 34
909 848 865.4212646484375 139 27 39
913 848 868.4066162109375 146 36 47
922 848 871.4000244140625 141 27 37
923 848 872.149658203125 142 28 38
928 848 874.4014892578125 141 31 40
931 848 875.1531372070312 142 28 38
936 848 876.6578369140625 140 29 38
940 848 878.16455078125 141 26 39
941 848 878.9186401367188 137 22 35
942 848 879.6732177734375 140 29 38
946 848 880.4282836914062 139 25 35
947 848 881.183837890625 140 26 36
954 848 884.9689331054688 143 32 41
956 848 884.9689331054688 142 31 40
957 848 885.7273559570312 144 33 42
961 848 886.486328125 144 29 42
972 848 891.0499267578125 137 27 36
973 848 891.8121948242188 139 29 38
981 848 894.8659057617188 136 26 37
982 848 895.6304931640625 150 40 51
983 848 896.3955688476562 138 28 39
986 848 896.3955688476562 141 31 42
987 848 897.1610717773438 139 32 42
988 848 897.9270629882812 138 31 41
989 848 898.6934814453125 144 38 48
993 848 900.2277221679688 141 31 44
1015 848 910.741455078125 139 31 44
1019 848 912.5667114257812 139 29 42
1348 848 1169.545654296875 77 77 89
1349 848 1170.4169921875 92 95 110
1382 848 1188.7628173828125 179 178 196
1383 848 1189.6385498046875 181 182 200
1384 848 1190.5146484375 178 177 195
1388 848 1192.2672119140625 190 198 211
1389 848 1193.143798828125 190 200 212
1394 848 1195.774658203125 190 202 216
1526 848 1273.2454833984375 170 171 192
1530 848 1275.0286865234375 179 182 201
1531 848 1275.92041015625 173 178 197
1535 848 1276.8123779296875 195 205 217
1536 848 1277.70458984375 189 199 209
1537 848 1278.596923828125 190 198 211
1538 848 1279.4893798828125 184 187 206
1805 848 1448.6165771484375 162 176 202
1806 848 1449.53271484375 160 178 200
1808 848 1451.365234375 169 186 206
1809 848 1452.2816162109375 160 175 196
1813 848 1454.1148681640625 161 183 206
1814 848 1455.0316162109375 152 179 198
1815 848 1455.948486328125 142 169 190
1820 848 1458.69970703125 162 191 207
1823 848 1461.4520263671875 152 179 198
705 849 796.303955078125 132 22 31
718 849 800.4898681640625 133 24 30
725 849 801.8902587890625 133 22 29
734 849 804.69873046875 140 31 37
735 849 805.4024047851562 131 22 28
738 849 806.106689453125 133 22 31
741 849 806.8116455078125 132 21 28
746 849 808.223388671875 137 26 33
750 849 809.6375732421875 133 28 35
841 849 840.4724731445312 135 25 36
842 849 841.2020874023438 137 27 36
846 849 842.6630249023438 136 26 35
852 849 844.8585815429688 137 26 35
862 849 847.0590209960938 138 28 37
875 849 854.30029296875 140 30 39
887 849 857.9942016601562 132 22 33
893 849 860.958740234375 140 33 41
897 849 861.7012329101562 140 30 41
911 849 866.9129028320312 142 32 43
920 849 870.56591796875 149 33 46
922 849 872.0625 140 26 36
939 849 879.575439453125 144 30 40
941 849 879.575439453125 138 26 38
942 849 880.3294677734375 145 34 43
946 849 881.083984375 137 23 33
947 849 881.8389892578125 146 32 42
948 849 882.594482421875 146 31 44
957 849 886.379150390625 143 32 41
962 849 887.8963623046875 141 29 41
966 849 889.41552734375 139 28 37
968 849 890.9365844726562 140 26 36
971 849 890.9365844726562 139 29 40
972 849 891.6978149414062 145 35 44
974 849 893.2216796875 146 39 49
977 849 893.9843139648438 145 38 46
978 849 894.7474365234375 146 36 47
982 849 896.2750854492188 137 27 38
983 849 897.03955078125 143 33 44
987 849 897.8045654296875 137 30 40
988 849 898.5699462890625 140 34 44
998 849 902.4039916992188 139 32 42
1009 849 907.7907104492188 136 28 41
1021 849 913.1993408203125 138 28 41
1024 849 913.1993408203125 144 34 47
1348 849 1170.0367431640625 87 87 99
1349 849 1170.90771484375 100 103 118
1389 849 1193.6251220703125 167 174 190
1393 849 1195.378173828125 173 180 196
1398 849 1197.1319580078125 189 197 210
1399 849 1198.0091552734375 188 196 207
1400 849 1198.8865966796875 178 184 198
1553 849 1288.870849609375 198 212 223
1554 849 1289.7646484375 194 207 216
1555 849 1290.65869140625 182 195 204
1560 849 1293.341796875 192 210 220
1807 849 1450.8497314453125 164 180 203
1808 849 1451.765869140625 154 169 192
1809 849 1452.6820068359375 155 167 193
1815 849 1456.3477783203125 151 173 197
1820 849 1459.098388671875 155 180 202
1821 849 1460.015380859375 154 179 199
1822 849 1460.9326171875 164 189 209
1823 849 1461.849853515625 154 179 199
1827 849 1462.7672119140625 157 179 200
1828 849 1463.6846923828125 165 191 208
1829 849 1464.602294921875 171 194 212
716 850 801.2047119140625 134 25 31
718 850 801.2047119140625 135 26 32
719 850 801.9039916992188 132 23 29
723 850 803.304443359375 132 23 29
733 850 804.7073974609375 135 26 31
734 850 805.4098510742188 136 27 32
751 850 811.0517578125 124 33 38
802 850 828.1551513671875 133 28 35
803 850 828.8751220703125 128 31 40
850 850 844.076416015625 135 25 34
852 850 845.5394897460938 135 21 31
853 850 846.2718505859375 134 23 32
854 850 845.5394897460938 135 24 33
855 850 846.2718505859375 137 27 36
859 850 847.7381591796875 134 24 33
861 850 847.0046997070312 137 26 33
862 850 847.7381591796875 145 35 44
873 850 852.1502075195312 136 26 37
874 850 852.887451171875 135 25 34
909 850 866.0883178710938 141 29 41
911 850 867.5787963867188 137 27 38
913 850 869.0713500976562 134 26 39
917 850 871.2301635742188 143 28 41
921 850 871.9776611328125 145 30 43
926 850 873.5610961914062 146 35 44
936 850 877.9755249023438 142 31 40
940 850 879.47998046875 140 28 40
941 850 880.23291015625 142 30 42
945 850 880.9863891601562 140 28 40
947 850 882.4947509765625 144 33 42
948 850 883.2496948242188 143 32 41
949 850 884.0050659179688 141 30 39
958 850 885.517333984375 138 28 37
959 850 886.2742309570312 140 30 39
966 850 890.0657348632812 137 27 36
973 850 893.1074829101562 140 33 41
982 850 896.9202880859375 143 33 42
983 850 897.6842651367188 143 36 44
986 850 897.6842651367188 142 35 43
987 850 898.4486694335938 143 36 44
988 850 899.2135620117188 148 43 50
993 850 901.5109252929688 139 29 40
998 850 903.0448608398438 143 36 46
999 850 903.8125 138 31 41
1000 850 904.58056640625 141 31 42
1003 850 905.34912109375 142 32 43
1014 850 909.9697875976562 137 27 38
1016 850 911.5135498046875 139 27 39
1021 850 913.8325805664062 144 34 47
1413 850 1206.3896484375 180 186 202
1414 850 1207.2684326171875 187 194 210
1415 850 1208.1473388671875 184 191 207
1416 850 1209.0264892578125 184 190 206
1553 850 1289.319580078125 181 186 205
1554 850 1290.213134765625 186 194 207
1560 850 1293.7890625 172 184 198
1561 850 1294.683349609375 179 191 207
1565 850 1296.4725341796875 187 204 214
1566 850 1297.3673095703125 182 199 209
1567 850 1298.2623291015625 177 191 202
1571 850 1299.157470703125 191 205 216
1572 850 1300.052734375 185 199 210
1573 850 1300.9481201171875 182 196 209
1830 850 1465.91748046875 158 169 197
1849 850 1478.773193359375 165 190 210
1851 850 1480.611328125 145 167 190
1856 850 1483.3695068359375 158 185 204
1863 850 1487.9683837890625 161 193 206
693 851 793.5552978515625 133 28 33
715 851 800.506103515625 131 22 28
722 851 803.318115234375 131 22 28
735 851 806.8240356445312 135 26 31
742 851 808.9351196289062 129 22 28
751 851 811.7586059570312 122 33 37
798 851 827.412841796875 119 28 37
851 851 845.4898071289062 136 25 32
852 851 846.2210083007812 135 24 33
854 851 846.2210083007812 138 28 37
856 851 847.68505859375 139 29 40
857 851 848.41796875 134 27 37
860 851 849.1513671875 139 32 40
863 851 849.1513671875 136 29 37
864 851 849.8853149414062 138 31 41
865 851 850.6197509765625 138 28 39
874 851 853.5631103515625 135 25 34
881 851 855.7762451171875 136 29 37
911 851 868.245361328125 142 32 43
912 851 868.9907836914062 136 28 41
917 851 871.2301635742188 139 27 39
921 851 871.9776611328125 145 33 45
922 851 872.7255859375 139 27 39
925 851 873.47412109375 144 34 45
938 851 877.9755249023438 140 29 38
941 851 880.8910522460938 143 31 43
942 851 881.6439208984375 139 28 37
945 851 881.6439208984375 143 31 43
947 851 883.1511840820312 143 32 41
948 851 883.905517578125 142 31 40
949 851 884.660400390625 135 24 33
961 851 888.44189453125 139 29 40
962 851 889.1996459960938 136 25 34
972 851 892.9955444335938 139 29 38
973 851 893.756103515625 142 35 43
974 851 894.5172119140625 143 38 45
978 851 896.0407104492188 141 31 40
981 851 896.80322265625 136 24 36
982 851 897.566162109375 136 29 37
983 851 898.32958984375 142 35 43
986 851 898.32958984375 144 37 45
987 851 899.0934448242188 142 35 43
988 851 899.8577880859375 140 33 41
989 851 900.62255859375 142 37 44
999 851 904.4534301757812 144 37 47
1000 851 905.220947265625 142 35 45
1003 851 905.9889526367188 145 35 46
1012 851 909.0654296875 141 34 44
1013 851 909.835693359375 141 34 44
1014 851 910.6063842773438 144 34 45
1016 851 912.1491088867188 148 36 48
1025 851 915.2398681640625 141 29 41
1027 851 916.787841796875 144 32 46
1037 851 921.4423217773438 145 35 48
1038 851 922.2196044921875 139 33 45
1420 851 1211.2613525390625 176 182 198
1421 851 1212.140625 171 177 193
1425 851 1213.89990234375 184 190 206
1426 851 1214.77978515625 186 192 208
1432 851 1217.420654296875 187 194 210
1560 851 1294.23681640625 169 178 195
1572 851 1300.4984130859375 178 190 204
1573 851 1301.3934326171875 171 183 197
1574 851 1302.2886962890625 168 180 196
1591 851 1313.0438232421875 189 205 218
1865 851 1490.2003173828125 150 172 195
1872 851 1493.8812255859375 155 184 202
1873 851 1494.8016357421875 148 177 195
1874 851 1495.7222900390625 151 180 198
1875 851 1496.6429443359375 155 184 200
1877 851 1498.484619140625 169 199 210
735 852 807.5357666015625 139 28 35
747 852 811.0542602539062 129 18 25
748 852 811.7598266601562 131 22 28
750 852 811.7598266601562 128 25 29
798 852 828.1093139648438 113 26 32
800 852 828.1093139648438 129 25 34
848 852 846.1725463867188 125 24 32
853 852 847.6343383789062 132 26 36
856 852 848.3660888671875 128 21 31
863 852 849.8311767578125 129 23 33
865 852 851.2984008789062 131 24 34
874 852 854.2394409179688 134 27 37
875 852 854.9760131835938 132 26 36
882 852 857.1890258789062 131 26 33
890 852 860.887939453125 137 30 38
896 852 861.6292724609375 138 32 42
927 852 875.6346435546875 139 32 40
939 852 879.38671875 141 31 42
941 852 880.8910522460938 136 24 36
946 852 883.054931640625 133 21 33
947 852 883.1511840820312 135 24 33
948 852 884.56201171875 139 28 37
962 852 889.8522338867188 139 27 39
965 852 890.6099243164062 142 32 43
973 852 894.4053955078125 149 39 50
974 852 895.1658935546875 142 35 45
977 852 895.9268798828125 151 44 52
979 852 895.9268798828125 133 23 32
981 852 897.4502563476562 140 30 41
982 852 898.212646484375 142 35 43
983 852 898.9755249023438 143 38 45
986 852 898.9755249023438 142 32 41
987 852 899.7388305664062 143 36 44
989 852 901.2669067382812 147 41 51
992 852 902.0316162109375 137 31 41
993 852 902.7967529296875 140 33 43
1001 852 906.6294555664062 143 36 46
1009 852 909.7037963867188 144 37 47
1010 852 908.1657104492188 138 28 39
1012 852 909.7037963867188 149 39 50
1014 852 911.24365234375 138 28 37
1015 852 912.0142822265625 142 32 41
1016 852 912.7852783203125 145 35 44
1017 852 913.5567626953125 148 38 47
1020 852 914.3287353515625 140 30 41
1021 852 915.10107421875 145 38 48
1022 852 915.8739013671875 141 34 44
1026 852 916.6471557617188 144 34 45
1027 852 917.4208374023438 135 25 36
1033 852 920.5199584960938 142 32 43
1044 852 925.1815795898438 123 37 46
1447 852 1226.7061767578125 202 210 221
1588 852 1310.7958984375 181 195 208
1589 852 1311.6923828125 179 193 206
1590 852 1312.5889892578125 178 190 204
1591 852 1313.48583984375 169 178 195
1872 852 1494.2723388671875 152 174 197
1873 852 1495.192626953125 141 163 186
1883 852 1502.55810546875 155 177 198
1890 852 1506.2432861328125 158 187 203
1891 852 1507.1649169921875 164 192 206
1892 852 1508.0865478515625 171 194 210
723 853 804.7322387695312 132 21 27
724 853 804.0503540039062 134 23 30
734 853 806.8339233398438 139 28 35
744 853 809.6524047851562 131 20 27
745 853 810.35546875 132 21 30
800 853 828.806396484375 128 27 35
852 853 847.5859985351562 134 30 39
875 853 855.6524047851562 126 25 33
878 853 856.388916015625 128 24 33
882 853 857.8636474609375 138 33 40
883 853 858.6017456054688 132 27 34
884 853 859.3404541015625 130 23 31
886 853 858.6017456054688 133 26 36
888 853 860.0796508789062 134 27 37
890 853 861.5596313476562 135 29 39
893 853 862.3004150390625 131 27 36
899 853 864.52587890625 133 26 34
938 853 880.7979125976562 140 30 41
945 853 882.3021240234375 140 28 40
946 853 883.054931640625 143 31 43
949 853 885.3163452148438 143 32 41
960 853 888.3383178710938 143 33 44
962 853 890.5054931640625 140 28 40
967 853 892.7782592773438 140 30 41
972 853 894.2958374023438 141 29 41
973 853 895.0552978515625 144 34 45
974 853 895.8152465820312 153 46 56
977 853 896.57568359375 150 43 51
981 853 898.0979614257812 150 40 51
982 853 898.85986328125 138 32 42
983 853 899.6221313476562 134 29 36
984 853 900.3848876953125 138 33 40
986 853 899.6221313476562 141 31 40
987 853 900.3848876953125 138 31 39
1000 853 906.5037231445312 128 22 32
1012 853 910.3427734375 144 34 45
1013 853 911.1119384765625 145 35 46
1014 853 911.881591796875 144 34 43
1015 853 912.651611328125 143 33 42
1016 853 913.422119140625 135 28 36
1021 853 915.736328125 146 39 49
1022 853 916.5086059570312 150 43 53
1024 853 915.736328125 141 34 44
1033 853 921.1514282226562 145 35 46
1448 853 1228.0594482421875 177 183 197
1605 853 1322.00341796875 173 186 202
1606 853 1322.9013671875 183 201 213
1607 853 1323.7994384765625 188 208 217
1608 853 1324.69775390625 178 197 204
1609 853 1325.5960693359375 174 191 199
1613 853 1327.393310546875 195 211 224
1614 853 1328.2921142578125 187 205 217
1615 853 1329.191162109375 179 197 209
1666 853 1359.840087890625 161 166 196
1885 853 1504.7896728515625 156 172 198
1892 853 1508.4747314453125 162 180 200
1893 853 1509.396240234375 161 178 198
1894 853 1510.31787109375 153 171 195
1918 853 1526.0003662109375 151 184 199
711 854 801.9600830078125 129 20 26
715 854 802.6561889648438 135 26 32
724 854 804.0503540039062 133 24 30
745 854 811.0665893554688 142 28 36
748 854 813.177734375 135 24 31
801 854 828.826904296875 130 29 37
871 854 855.5939331054688 128 28 38
882 854 858.5388793945312 128 23 30
886 854 859.2764282226562 130 24 34
887 854 860.0145263671875 133 27 37
889 854 861.4923095703125 132 25 35
890 854 862.2319946289062 134 27 37
893 854 862.97216796875 137 32 39
896 854 862.97216796875 132 27 34
898 854 864.4541625976562 139 32 42
944 854 882.2091674804688 143 32 41
949 854 885.972900390625 141 29 41
960 854 888.99267578125 144 34 47
961 854 889.7488403320312 137 27 40
966 854 892.0202026367188 137 27 40
967 854 893.4304809570312 136 26 39
968 854 894.1884765625 138 28 41
972 854 894.9468994140625 138 26 38
973 854 895.7058715820312 143 33 44
980 854 897.9855346679688 139 27 39
983 854 900.2694091796875 135 31 40
986 854 900.2694091796875 135 28 38
987 854 901.0316162109375 142 35 45
988 854 901.7943115234375 137 29 42
993 854 904.0851440429688 134 28 38
994 854 904.8497314453125 141 34 44
999 854 906.3801879882812 137 31 41
1000 854 907.1460571289062 134 28 38
1003 854 907.9124145507812 144 37 45
1006 854 908.6792602539062 161 55 65
1010 854 909.446533203125 145 35 46
1012 854 910.982421875 140 33 43
1013 854 911.7510375976562 141 34 44
1014 854 912.5201416015625 143 36 46
1015 854 913.2896728515625 143 36 46
1016 854 914.0596313476562 139 32 42
1020 854 915.6008911132812 147 40 48
1021 854 916.3721923828125 146 39 47
1026 854 917.9161376953125 136 26 37
1030 854 919.4617919921875 143 36 46
1044 854 926.4389038085938 116 36 45
1348 854 1171.0208740234375 68 68 80
1467 854 1239.1226806640625 193 200 216
1468 854 1240.0064697265625 191 204 213
1469 854 1240.890380859375 192 205 214
1609 854 1326.035400390625 171 179 198
1614 854 1328.7305908203125 175 183 202
1615 854 1329.6292724609375 173 184 202
1619 854 1331.427001953125 182 200 212
1620 854 1332.326171875 183 201 211
1621 854 1333.2254638671875 183 201 213
1625 854 1334.124755859375 184 200 213
1626 854 1335.0242919921875 188 206 218
1627 854 1335.924072265625 182 200 214
1919 854 1527.3077392578125 154 183 199
751 855 814.5919189453125 116 29 35
801 855 829.5233764648438 128 27 35
853 855 848.9993896484375 135 28 36
885 855 859.2147827148438 124 23 31
