ply
format ascii 1.0
element vertex 1311
property float x
property float y
property float z
property float red
property float green
property float blue
end_header
1511 939 1294.799560546875 178 178 202
1520 939 1300.01611328125 166 163 190
1627 939 1363.6495361328125 166 176 201
1628 939 1364.531005859375 168 180 202
1817 939 1485.7567138671875 163 186 202
680 940 840.2594604492188 62 55 45
777 940 866.7900390625 123 24 29
796 940 873.6275024414062 135 31 38
807 940 877.1419677734375 124 20 27
809 940 878.51806640625 126 25 31
817 940 880.5867309570312 128 22 32
818 940 881.2774658203125 127 21 31
822 940 882.6607666015625 123 22 30
836 940 888.2387084960938 129 25 34
840 940 888.9347534179688 125 21 30
841 940 889.6314086914062 132 28 37
845 940 891.0263671875 130 26 33
852 940 892.4236450195312 131 26 33
853 940 893.1231689453125 135 30 37
854 940 893.8232421875 129 24 31
858 940 895.22509765625 124 19 26
863 940 896.6292724609375 126 21 28
865 940 898.03564453125 131 26 33
866 940 897.3321533203125 127 22 29
871 940 899.4442749023438 137 30 38
886 940 905.8040771484375 132 22 31
891 940 907.9295043945312 130 23 31
892 940 908.6390991210938 132 25 33
893 940 907.9295043945312 134 27 35
894 940 908.6390991210938 130 20 29
900 940 911.4740600585938 129 22 30
915 940 917.1788330078125 136 31 36
966 940 935.9086303710938 106 27 33
973 940 938.8231811523438 144 37 47
983 940 943.841064453125 144 40 49
985 940 945.30419921875 134 30 41
988 940 946.0364990234375 140 33 43
998 940 949.7052001953125 142 38 47
1369 940 1214.1387939453125 100 111 133
1370 940 1214.98974609375 119 131 153
1371 940 1215.8408203125 141 152 174
1385 940 1223.5113525390625 153 155 180
1527 940 1304.860107421875 169 171 196
1528 940 1305.7308349609375 167 169 194
1532 940 1307.4727783203125 180 177 204
1533 940 1308.343994140625 167 167 193
1627 940 1364.1220703125 172 189 207
1647 940 1377.357666015625 164 169 198
1648 940 1378.2412109375 162 167 196
1818 940 1487.0927734375 168 187 204
699 941 848.3218994140625 66 62 53
764 941 863.4535522460938 118 29 35
835 941 887.543212890625 129 23 33
844 941 891.0454711914062 131 27 34
849 941 893.1388549804688 131 24 34
852 941 893.1388549804688 129 24 31
862 941 896.6392822265625 131 26 33
875 941 900.8584594726562 128 21 29
888 941 907.9262084960938 133 26 34
895 941 910.0532836914062 134 24 33
896 941 910.763427734375 132 22 31
897 941 909.3436889648438 132 22 31
899 941 910.763427734375 127 20 28
901 941 912.185302734375 132 25 33
909 941 914.3221435546875 134 27 35
918 941 918.5929565429688 130 23 31
928 941 922.1756591796875 116 31 38
973 941 939.50732421875 137 30 40
985 941 945.9857177734375 138 34 45
986 941 945.3560180664062 140 34 46
989 941 947.44970703125 146 40 50
990 941 948.1824951171875 131 27 36
991 941 948.9157104492188 137 33 42
994 941 949.6494140625 139 32 42
1066 941 980.0433959960938 150 160 187
1067 941 980.7955932617188 142 152 179
1370 941 1215.51513671875 126 141 160
1391 941 1227.446533203125 167 169 194
1392 941 1228.3004150390625 170 172 195
1393 941 1229.154541015625 159 159 183
1538 941 1310.577392578125 173 170 199
1540 941 1312.3204345703125 168 165 192
1652 941 1380.4766845703125 164 175 197
1653 941 1381.360595703125 170 181 203
1654 941 1382.2445068359375 159 166 194
792 942 873.7122192382812 130 31 36
809 942 878.51806640625 126 25 31
831 942 886.874267578125 130 26 33
835 942 888.2623291015625 128 22 32
836 942 888.957275390625 125 21 28
859 942 897.3522338867188 130 25 32
864 942 898.7552490234375 130 25 32
873 942 902.272705078125 127 20 28
874 942 900.864013671875 127 20 28
876 942 902.272705078125 128 23 30
885 942 905.0966796875 130 23 31
886 942 905.8040771484375 133 23 32
887 942 906.5120239257812 136 26 35
891 942 907.9295043945312 132 25 33
896 942 911.4674682617188 130 23 31
903 942 912.8882446289062 131 24 32
904 942 913.5994873046875 128 21 29
905 942 914.3112182617188 129 22 30
909 942 915.0234985351562 132 25 35
910 942 915.736328125 128 21 29
970 942 938.008544921875 121 21 31
971 942 938.73583984375 129 23 33
972 942 939.4636840820312 133 26 36
973 942 940.1920166015625 137 30 40
982 942 944.4771118164062 133 29 38
983 942 943.841064453125 134 30 39
985 942 945.30419921875 141 35 45
987 942 945.30419921875 136 30 40
988 942 946.0364990234375 136 30 40
994 942 950.3289184570312 136 30 40
1068 942 982.2067260742188 138 145 171
1392 942 1228.8209228515625 169 173 198
1393 942 1229.6748046875 166 170 195
1396 942 1230.52880859375 168 170 193
1397 942 1231.3829345703125 169 171 194
1398 942 1232.2374267578125 160 160 186
1402 942 1233.092041015625 166 171 193
1403 942 1233.9468994140625 165 167 190
1539 942 1311.939453125 181 181 207
1660 942 1386.24853515625 156 166 191
1665 942 1388.0177001953125 166 176 201
1667 942 1389.787353515625 151 161 188
633 943 820.8446655273438 64 57 49
810 943 879.9318237304688 122 22 30
830 943 886.9024658203125 124 20 27
854 943 895.9671020507812 131 27 34
863 943 898.766357421875 132 27 34
865 943 900.16943359375 125 20 27
871 943 901.57470703125 131 26 33
872 943 902.2781982421875 127 20 28
881 943 905.0977783203125 138 33 40
885 943 905.8040771484375 130 23 31
888 943 906.5108642578125 133 26 34
895 943 910.0532836914062 135 28 36
904 943 914.302490234375 133 26 34
908 943 915.013671875 129 22 32
909 943 915.7254028320312 128 21 31
971 943 939.4221801757812 126 25 33
972 943 940.1494750976562 139 33 43
982 943 943.7933959960938 132 28 37
983 943 944.523681640625 135 31 40
985 943 945.9857177734375 137 31 41
993 943 948.9157104492188 137 33 42
1060 943 979.11181640625 140 147 175
1067 943 982.1140747070312 144 154 181
1068 943 982.86572265625 137 144 172
1397 943 1231.9029541015625 176 178 201
1555 943 1322.0216064453125 171 170 201
1557 943 1323.7677001953125 171 176 198
1558 943 1324.64111328125 169 170 198
1561 943 1325.5146484375 177 179 204
1562 943 1326.3883056640625 170 172 195
793 944 875.85498046875 127 30 37
795 944 875.85498046875 124 23 31
798 944 875.85498046875 126 25 33
799 944 876.5392456054688 122 21 29
818 944 882.7241821289062 129 25 34
835 944 889.7022094726562 132 31 39
838 944 889.7022094726562 125 24 30
847 944 894.5708618164062 127 23 30
853 944 895.2686767578125 124 20 27
854 944 895.9671020507812 127 23 30
867 944 900.8817749023438 129 24 31
871 944 902.2860107421875 128 21 29
874 944 902.2860107421875 130 23 31
876 944 903.6924438476562 131 26 33
881 944 905.8062744140625 128 23 30
886 944 907.21826171875 128 21 29
895 944 910.7579345703125 125 20 27
898 944 910.7579345703125 129 22 30
908 944 915.7166748046875 132 25 33
921 944 919.9918212890625 128 21 31
923 944 921.4212036132812 130 29 37
924 944 922.1366577148438 126 29 38
925 944 922.8526611328125 120 27 37
970 944 939.3827514648438 114 27 36
971 944 940.1090087890625 123 26 35
972 944 940.8358154296875 129 28 36
973 944 941.5630493164062 136 30 40
983 944 945.2068481445312 132 28 39
986 944 947.3990478515625 136 30 42
989 944 948.1307983398438 138 34 43
990 944 948.8629760742188 135 31 40
993 944 949.595703125 136 30 40
996 944 949.595703125 134 30 41
998 944 951.0625610351562 139 37 48
1369 944 1215.7178955078125 99 101 122
1404 944 1235.83984375 165 165 191
1417 944 1242.6826171875 167 163 190
1418 944 1243.5389404296875 172 170 192
1419 944 1244.3953857421875 170 171 192
1564 944 1328.6221923828125 167 168 196
1568 944 1330.3702392578125 178 183 205
1569 944 1331.2445068359375 171 176 198
1570 944 1332.1190185546875 155 152 181
1684 944 1401.343994140625 161 177 200
1685 944 1402.2303466796875 162 178 201
1884 944 1531.2197265625 160 177 203
610 945 811.010498046875 63 56 48
650 945 827.5131225585938 66 57 50
818 945 883.4483642578125 124 20 29
831 945 887.5950927734375 132 31 39
833 945 888.9819946289062 123 22 28
846 945 894.5909423828125 127 23 30
851 945 894.5909423828125 131 27 34
858 945 898.0802001953125 127 22 29
873 945 904.4031372070312 129 22 30
884 945 906.5153198242188 133 26 34
885 945 907.220458984375 129 22 30
887 945 908.6325073242188 130 25 32
888 945 909.3392944335938 126 21 28
891 945 910.0466918945312 130 23 31
900 945 912.8817138671875 131 24 32
922 945 921.406005859375 132 28 37
973 945 942.2494506835938 134 30 39
984 945 946.6203002929688 128 24 33
985 945 947.3505249023438 138 32 42
986 945 948.0812377929688 126 20 32
989 945 948.8124389648438 129 25 34
991 945 950.2762451171875 138 34 43
992 945 949.5441284179688 132 26 36
993 945 950.2762451171875 136 30 40
995 945 951.7420654296875 132 28 39
998 945 951.7420654296875 133 31 42
999 945 952.4757080078125 141 49 62
1000 945 953.2098388671875 116 41 61
1420 945 1245.76806640625 156 153 180
1423 945 1246.6246337890625 167 164 191
1428 945 1249.19580078125 169 169 193
1575 945 1334.35302734375 162 166 193
1576 945 1335.2276611328125 155 156 186
1577 945 1336.1025390625 153 154 185
670 946 834.7484741210938 60 51 42
808 946 880.7366333007812 124 24 32
839 946 890.39599609375 122 21 27
859 946 899.4943237304688 129 24 31
869 946 902.997802734375 127 22 29
874 946 903.7101440429688 127 22 29
876 946 905.1143798828125 129 24 31
885 946 907.9295043945312 130 23 31
893 946 910.7535400390625 129 24 31
901 946 914.2958984375 129 22 30
903 946 915.7166748046875 137 30 38
905 946 915.7166748046875 127 20 28
984 946 947.3040771484375 130 26 37
985 946 948.0337524414062 133 29 40
988 946 948.763916015625 138 32 42
989 946 949.49462890625 132 26 36
990 946 950.2257690429688 130 24 34
991 946 949.49462890625 131 25 35
994 946 951.6895751953125 132 28 39
997 946 951.6895751953125 134 33 41
998 946 952.4221801757812 135 33 44
999 946 953.1552734375 132 40 53
1424 946 1247.9971923828125 172 177 199
1428 946 1249.7108154296875 173 175 200
1434 946 1252.28271484375 171 171 195
1435 946 1253.1405029296875 165 165 191
1437 946 1254.8565673828125 159 156 185
1576 946 1335.7125244140625 165 171 197
1709 946 1418.2386474609375 160 175 196
1710 946 1419.127197265625 162 179 199
1711 946 1420.015869140625 152 167 190
794 947 876.6327514648438 114 27 36
840 947 891.8099365234375 125 21 28
842 947 893.1992797851562 130 25 32
858 947 899.510986328125 132 27 34
863 947 900.908447265625 134 30 37
864 947 901.6080322265625 134 30 37
865 947 902.3081665039062 127 23 30
870 947 903.0088500976562 126 21 28
881 947 907.9349975585938 129 24 31
885 947 908.6390991210938 134 27 35
891 947 911.4609375 134 29 36
894 947 912.167724609375 132 25 33
905 947 916.4202270507812 131 24 32
908 947 916.4202270507812 130 23 31
909 947 917.130859375 131 24 32
911 947 918.5537719726562 128 21 29
915 947 919.9788208007812 130 23 29
926 947 925.66357421875 108 28 37
990 947 950.907958984375 134 28 38
991 947 951.6390991210938 131 25 35
994 947 952.3707275390625 136 32 43
996 947 951.6390991210938 140 36 45
998 947 953.1028442382812 135 35 45
999 947 953.8353881835938 126 36 48
1011 947 958.97705078125 135 139 166
1368 947 1219.0 75 74 82
1370 947 1218.1510009765625 89 101 101
1434 947 1252.7972412109375 164 166 189
1435 947 1253.6546630859375 166 166 192
1600 947 1351.083251953125 161 161 189
1710 947 1419.586181640625 174 191 211
1711 947 1420.474609375 167 183 206
1712 947 1421.363037109375 153 167 193
1722 947 1425.807861328125 163 179 202
1723 947 1426.697265625 167 182 205
1725 947 1428.4764404296875 151 158 187
661 948 830.452880859375 65 56 47
676 948 836.9181518554688 68 62 50
819 948 886.31201171875 127 23 30
832 948 890.4521484375 124 20 29
840 948 892.5300903320312 124 20 29
852 948 896.0050048828125 128 24 31
871 948 904.4230346679688 126 21 28
886 948 910.0532836914062 137 30 38
892 948 912.8751220703125 131 27 34
893 948 912.1688232421875 128 23 30
898 948 913.5819702148438 132 25 33
904 948 916.4147338867188 129 24 31
906 948 917.8344116210938 127 22 29
917 948 920.68017578125 126 21 26
924 948 923.5344848632812 123 32 41
925 948 924.2494506835938 113 31 37
992 948 951.5907592773438 133 27 37
996 948 952.3213500976562 142 36 46
998 948 953.7840576171875 140 40 48
1371 948 1219.528564453125 61 66 60
1372 948 1220.37744140625 86 95 90
1450 948 1262.7513427734375 175 177 200
1451 948 1263.6107177734375 166 166 190
1608 948 1355.9498291015625 162 167 197
1609 948 1356.8275146484375 162 167 196
1611 948 1358.58349609375 169 175 201
661 949 831.218994140625 63 54 45
826 949 889.1034545898438 129 25 32
838 949 891.8660278320312 122 21 29
853 949 897.4190673828125 125 21 28
867 949 903.7366943359375 126 22 29
893 949 912.8773193359375 130 25 32
896 949 914.9961547851562 135 30 37
898 949 914.2893676757812 136 29 37
899 949 914.9961547851562 129 22 30
905 949 917.8289794921875 129 24 31
906 949 918.5385131835938 127 22 29
909 949 918.5385131835938 136 29 37
910 949 919.2485961914062 130 23 31
914 949 920.67041015625 126 21 28
921 949 922.0943603515625 130 29 35
999 949 955.1973876953125 129 39 49
1027 949 966.9674072265625 136 141 170
1377 949 1223.452880859375 90 93 98
1616 949 1361.6964111328125 172 177 206
1617 949 1362.5748291015625 164 168 195
651 950 827.5101318359375 65 55 46
845 950 896.0518798828125 126 22 29
848 950 896.746337890625 124 23 29
865 950 903.0221557617188 121 22 27
885 950 910.0598754882812 126 20 30
890 950 912.172119140625 127 22 29
893 950 912.8773193359375 127 22 29
898 950 914.9972534179688 134 29 36
901 950 917.1177978515625 135 28 38
902 950 917.82568359375 131 26 33
913 950 920.6627807617188 131 24 32
914 950 921.3734130859375 131 24 32
917 950 922.0845947265625 132 27 34
924 950 924.9345703125 122 32 41
1037 950 971.3413696289062 141 146 175
1383 950 1226.52880859375 108 91 99
1384 950 1227.3785400390625 111 91 100
1387 950 1229.9288330078125 131 124 132
1471 950 1275.8154296875 162 162 190
1629 950 1369.2041015625 164 168 197
1725 950 1429.8482666015625 173 192 209
1750 950 1445.8720703125 160 171 199
1755 950 1448.5472412109375 164 175 205
1756 950 1449.439208984375 158 169 197
1757 950 1450.331298828125 151 162 192
841 951 895.3859252929688 128 27 33
863 951 902.3391723632812 124 24 32
865 951 903.7366943359375 122 21 27
871 951 905.136474609375 127 21 31
876 951 906.5384521484375 125 21 28
887 951 912.1776123046875 128 23 30
891 951 913.5863647460938 126 21 28
901 951 917.1177978515625 128 21 31
905 951 919.2399291992188 127 22 29
909 951 919.9483642578125 130 24 34
910 951 920.6573486328125 129 23 33
918 951 923.498779296875 130 25 32
924 951 925.6354370117188 115 28 36
1384 951 1227.9058837890625 77 56 63
1385 951 1228.7554931640625 79 60 66
1388 951 1231.305419921875 96 81 88
1479 951 1281.49365234375 161 161 185
1749 951 1445.4342041015625 161 179 201
1756 951 1449.891357421875 161 175 202
1763 951 1453.459716796875 155 171 196
1765 951 1455.24462890625 144 153 184
1766 951 1456.1373291015625 156 165 196
830 952 891.2418212890625 125 26 31
857 952 900.9650268554688 127 22 29
863 952 903.0553588867188 127 26 32
864 952 903.7532958984375 127 26 32
866 952 903.7532958984375 129 28 34
868 952 905.1508178710938 130 26 33
892 952 915.0005493164062 131 26 33
899 952 916.4114990234375 130 23 31
903 952 917.8245849609375 135 31 38
909 952 919.9483642578125 127 23 32
989 952 952.9139404296875 133 29 40
1087 952 998.1141967773438 65 63 76
1396 952 1235.2335205078125 84 73 89
1397 952 1236.0845947265625 90 81 98
1398 952 1236.9356689453125 86 79 97
1479 952 1282.0003662109375 160 165 185
1483 952 1282.8624267578125 167 172 192
1484 952 1283.724609375 162 164 187
1485 952 1284.5870361328125 153 153 179
1649 952 1383.357177734375 153 160 188
1653 952 1385.119873046875 169 175 201
1751 952 1447.670166015625 165 181 204
550 953 784.6757202148438 57 54 45
699 953 846.575439453125 72 67 61
844 953 897.5216064453125 122 21 27
857 953 901.6834106445312 128 23 30
858 953 902.3790893554688 135 30 37
867 953 905.1673583984375 124 23 29
868 953 905.8659057617188 136 32 39
875 953 907.2645874023438 130 26 33
877 953 908.66552734375 126 22 29
901 953 918.531982421875 127 22 29
985 953 951.4583740234375 139 35 44
986 953 952.1859130859375 137 33 44
994 953 955.7850341796875 136 32 43
1055 953 981.5222778320312 142 149 177
1403 953 1239.1629638671875 90 82 95
1653 953 1385.59228515625 159 166 194
1660 953 1390.0003662109375 167 173 199
1661 953 1390.8824462890625 156 160 189
1781 953 1466.8623046875 153 173 198
1788 953 1470.4383544921875 150 166 191
1789 953 1471.332763671875 150 166 189
1790 953 1472.2271728515625 151 167 192
1792 953 1474.0166015625 145 156 188
671 954 833.7793579101562 63 54 45
688 954 841.4867553710938 63 55 44
848 954 899.627685546875 121 22 27
858 954 903.0974731445312 131 27 36
860 954 902.40234375 137 33 42
862 954 903.7930908203125 134 30 37
867 954 905.883544921875 126 22 29
868 954 906.5814819335938 126 22 29
870 954 906.5814819335938 131 26 33
873 954 908.6787109375 123 20 24
877 954 909.37890625 127 24 28
884 954 910.781005859375 128 23 30
891 954 914.2958984375 129 24 31
892 954 915.0005493164062 132 27 34
901 954 919.2399291992188 136 31 38
904 954 919.9461669921875 138 34 41
909 954 921.3604125976562 127 22 29
910 954 922.0682983398438 129 24 31
945 954 936.316162109375 57 60 79
978 954 949.2418212890625 127 27 37
983 954 950.6923828125 142 56 69
985 954 952.1449584960938 140 38 49
988 954 952.8719482421875 139 35 44
989 954 953.5994873046875 135 31 40
990 954 954.3275146484375 133 31 42
1000 954 957.9749755859375 123 49 66
1056 954 982.9343872070312 139 144 173
1068 954 988.1583862304688 133 143 170
1507 954 1298.55029296875 168 164 189
1666 954 1393.11767578125 160 167 195
1669 954 1395.7650146484375 141 148 177
1788 954 1470.8861083984375 158 176 200
1790 954 1472.6744384765625 156 174 198
1791 954 1473.56884765625 143 159 185
1792 954 1474.4632568359375 149 163 192
554 955 786.6492309570312 79 75 66
694 955 844.8390502929688 67 58 51
849 955 900.3204956054688 124 25 30
862 955 904.511474609375 127 23 30
863 955 905.2071533203125 128 24 31
865 955 906.6002197265625 125 21 28
870 955 907.297607421875 130 25 32
871 955 907.99560546875 129 24 31
875 955 908.694091796875 136 32 39
884 955 911.4938354492188 128 23 30
886 955 912.8970336914062 132 27 34
888 955 914.302490234375 124 20 27
890 955 914.302490234375 126 22 29
894 955 915.7100830078125 128 23 30
898 955 916.4147338867188 133 29 36
899 955 917.1199340820312 134 30 37
914 955 924.1909790039062 125 21 30
915 955 924.9000244140625 124 20 29
950 955 938.4481811523438 54 59 81
979 955 950.6555786132812 129 31 44
984 955 952.1060791015625 141 45 57
989 955 954.2855834960938 136 32 41
993 955 955.7410888671875 132 28 39
1506 955 1298.1883544921875 163 163 187
1791 955 1474.0162353515625 156 174 198
1810 955 1486.5477294921875 145 161 184
1816 955 1490.1329345703125 158 180 201
1817 955 1491.029541015625 145 167 188
553 956 786.8856201171875 75 65 63
554 956 787.4642944335938 77 73 64
669 956 834.0479736328125 61 52 43
736 956 862.01220703125 58 59 53
869 956 908.7117309570312 127 26 34
870 956 908.0143432617188 126 22 29
899 956 917.8289794921875 127 23 30
908 956 920.6530151367188 126 22 29
951 956 939.8622436523438 63 76 108
984 956 952.7943115234375 131 38 49
989 956 954.9722290039062 134 33 41
993 956 956.4266967773438 130 29 37
999 956 958.6119995117188 119 31 43
1000 956 959.3414306640625 127 54 71
1088 956 1001.493408203125 57 51 61
1418 956 1249.25341796875 71 56 79
1520 956 1306.4749755859375 164 157 190
1687 956 1408.1864013671875 146 156 183
1810 956 1486.991943359375 158 176 198
1812 956 1488.78369140625 146 157 189
1815 956 1489.6798095703125 153 177 201
1816 956 1490.5760498046875 153 175 198
1818 956 1492.368896484375 147 164 192
556 957 789.4384155273438 63 59 48
563 957 792.3496704101562 58 54 45
862 957 905.9497680664062 123 24 29
864 957 906.6212158203125 125 24 30
887 957 915.0234985351562 125 21 28
889 957 915.0234985351562 124 20 27
895 957 917.8344116210938 126 22 31
901 957 919.9483642578125 125 19 29
902 957 920.6541137695312 129 24 31
904 957 920.6541137695312 126 25 31
977 957 949.20703125 116 29 37
989 957 955.6594848632812 132 31 39
999 957 959.296630859375 130 42 54
1422 957 1252.1441650390625 64 50 75
1520 957 1306.9759521484375 173 168 200
1527 957 1311.3050537109375 167 164 193
1529 957 1313.0380859375 171 171 197
1812 957 1489.22802734375 151 166 195
1815 957 1490.123779296875 152 178 201
1818 957 1492.8121337890625 144 164 189
1829 957 1498.1922607421875 149 171 194
1830 957 1499.08935546875 154 174 198
1831 957 1499.9866943359375 156 173 199
1832 957 1500.884033203125 153 164 194
1833 957 1501.7816162109375 144 155 187
562 958 790.8331298828125 59 56 47
884 958 913.6356201171875 125 21 30
900 958 919.9526977539062 127 23 30
903 958 922.0682983398438 125 24 32
910 958 923.4814453125 126 22 31
918 958 926.314208984375 131 36 44
984 958 952.7943115234375 140 53 61
985 958 953.519775390625 132 39 47
1427 958 1255.226318359375 53 57 84
1431 958 1256.934814453125 60 60 88
1435 958 1257.789306640625 79 78 112
1436 958 1258.6441650390625 88 86 123
1534 958 1316.13720703125 164 168 195
1535 958 1317.004150390625 170 171 199
1539 958 1317.871337890625 169 171 196
1540 958 1318.73876953125 172 174 199
1709 958 1422.392333984375 158 172 199
1712 958 1425.050537109375 157 167 194
1812 958 1489.6727294921875 158 179 200
1849 958 1512.1011962890625 141 162 189
562 959 791.6476440429688 63 60 51
886 959 915.7493896484375 124 23 29
888 959 917.1504516601562 125 24 32
889 959 916.4496459960938 123 22 30
891 959 917.8518676757812 126 25 33
892 959 918.5537719726562 129 25 32
897 959 918.5537719726562 129 28 36
901 959 921.366943359375 126 22 29
957 959 941.972412109375 40 56 72
984 959 953.4830932617188 136 49 57
985 959 954.2080688476562 136 45 54
991 959 957.1128540039062 138 38 48
994 959 957.8402709960938 131 29 40
1288 959 1153.349853515625 62 58 59
1434 959 1257.45458984375 59 56 87
1435 959 1258.308837890625 61 57 90
1436 959 1259.1632080078125 55 54 86
1437 959 1260.017822265625 57 58 89
1438 959 1260.8726806640625 63 66 101
1439 959 1261.727783203125 75 77 115
1444 959 1264.2943115234375 101 93 130
1710 959 1423.7423095703125 160 176 201
1711 959 1424.6280517578125 162 176 202
1712 959 1425.513916015625 164 174 201
1716 959 1427.2862548828125 165 179 206
1717 959 1428.172607421875 166 182 208
1719 959 1429.94580078125 151 157 189
1831 959 1500.870361328125 145 177 192
1832 959 1501.767333984375 152 174 198
1850 959 1513.4384765625 147 174 201
1851 959 1514.337158203125 146 174 198
1852 959 1515.2359619140625 134 160 185
1858 959 1518.8323974609375 152 168 194
1859 959 1519.73193359375 149 165 191
1860 959 1520.6314697265625 148 159 189
895 960 919.9679565429688 134 33 39
900 960 921.3734130859375 132 26 36
901 960 922.0770263671875 128 24 33
915 960 927.0172729492188 125 24 30
917 960 927.0172729492188 131 35 39
923 960 929.1426391601562 115 35 44
978 960 952.0020751953125 116 30 39
984 960 954.1724243164062 139 52 61
985 960 954.8968505859375 122 31 40
986 960 955.6217651367188 128 31 42
991 960 957.799560546875 137 37 47
993 960 957.799560546875 135 31 40
994 960 958.5264892578125 134 30 41
996 960 959.9817504882812 137 35 46
1281 960 1149.8043212890625 60 57 50
1282 960 1150.6263427734375 64 61 56
1285 960 1153.0941162109375 62 59 54
1439 960 1262.2464599609375 48 55 84
1445 960 1265.6673583984375 66 71 103
1446 960 1266.523193359375 85 86 117
1447 960 1267.379150390625 89 90 121
1450 960 1267.379150390625 98 98 136
1451 960 1268.2353515625 93 93 131
1452 960 1269.091796875 103 101 140
1557 960 1330.150390625 177 178 206
1724 960 1432.1815185546875 166 176 203
1725 960 1433.068359375 158 165 194
1831 960 1501.3131103515625 157 189 202
1832 960 1502.209716796875 154 179 201
1859 960 1520.1690673828125 161 178 204
1860 960 1521.068359375 145 160 189
1867 960 1525.5667724609375 149 163 192
604 961 808.0006103515625 65 56 47
697 961 846.0733032226562 60 51 44
896 961 921.3821411132812 129 28 36
901 961 922.78759765625 126 22 31
920 961 927.72412109375 118 27 36
979 961 953.4159545898438 120 27 37
985 961 955.586181640625 129 37 48
986 961 956.3106079101562 125 28 39
990 961 957.7609252929688 126 26 36
992 961 959.2131958007812 131 27 36
993 961 958.48681640625 132 28 37
994 961 959.2131958007812 127 23 34
995 961 959.9401245117188 135 31 42
997 961 959.2131958007812 128 26 37
999 961 960.66748046875 128 38 48
1000 961 961.3953247070312 121 47 64
1276 961 1146.2705078125 57 54 49
1280 961 1149.552978515625 70 65 59
1281 961 1150.374267578125 64 59 53
1289 961 1155.3082275390625 70 61 54
1445 961 1266.1851806640625 50 60 87
1446 961 1267.0406494140625 54 61 87
1448 961 1268.752197265625 58 65 93
1450 961 1267.896240234375 74 78 115
1451 961 1268.752197265625 79 83 120
1452 961 1269.608154296875 74 78 115
1453 961 1270.4644775390625 75 78 113
1563 961 1334.121826171875 169 173 198
1569 961 1337.6011962890625 168 170 195
1860 961 1521.505859375 151 171 196
1878 961 1533.204833984375 148 172 196
1885 961 1537.7099609375 153 173 198
888 962 918.5776977539062 129 25 32
909 962 925.6095581054688 129 28 36
913 962 927.0194091796875 123 27 31
914 962 927.7251586914062 120 23 30
919 962 929.845703125 123 34 40
922 962 929.845703125 117 31 40
923 962 930.5535888671875 115 35 44
985 962 956.276123046875 127 34 44
986 962 957.0 132 35 46
990 962 958.4492797851562 129 29 39
991 962 959.1746215820312 138 36 47
997 962 959.9005126953125 136 36 44
998 962 960.6268920898438 136 39 48
999 962 961.353759765625 122 32 42
1000 962 962.0810546875 121 47 64
1276 962 1146.843017578125 61 56 50
1277 962 1147.662841796875 66 61 55
1285 962 1152.5875244140625 63 56 50
1293 962 1156.69921875 59 54 50
1294 962 1157.5223388671875 60 55 52
1451 962 1269.26953125 55 65 90
1452 962 1270.125244140625 58 65 91
1453 962 1270.9810791015625 61 67 93
1459 962 1274.4068603515625 86 98 120
1470 962 1279.5518798828125 127 128 159
1471 962 1280.4100341796875 132 136 165
1472 962 1281.2685546875 139 146 172
1473 962 1282.127197265625 135 145 170
1474 962 1282.9859619140625 125 132 158
1569 962 1338.0941162109375 178 179 207
1749 962 1449.08251953125 163 177 203
1750 962 1449.971435546875 157 169 193
1754 962 1451.7496337890625 159 169 196
1755 962 1452.6390380859375 162 174 198
1875 962 1530.9385986328125 149 166 194
1876 962 1531.8387451171875 139 159 186
1877 962 1532.739013671875 149 170 197
1878 962 1533.639404296875 146 170 194
1887 962 1539.94580078125 142 164 187
1892 962 1541.7486572265625 155 169 198
1893 962 1542.6502685546875 154 171 197
1894 962 1543.5521240234375 149 167 191
1895 962 1544.4539794921875 148 165 191
645 963 822.944091796875 64 54 45
895 963 922.1062622070312 128 27 35
915 963 928.4314575195312 120 25 31
951 963 942.6499633789062 119 134 163
979 963 954.7994384765625 119 29 38
986 963 957.68994140625 137 40 51
988 963 957.68994140625 133 31 42
989 963 958.413818359375 131 29 40
990 963 959.13818359375 139 39 49
995 963 961.314208984375 130 26 37
998 963 961.314208984375 128 31 40
1000 963 962.7673950195312 113 40 57
1012 963 967.8687744140625 143 149 175
1286 963 1151.5159912109375 74 64 62
1290 963 1154.8009033203125 72 67 61
1292 963 1156.4449462890625 63 56 50
1293 963 1157.2674560546875 60 53 47
1295 963 1158.913330078125 64 56 53
1454 963 1272.3541259765625 60 63 82
1459 963 1274.9227294921875 81 94 110
1471 963 1280.9234619140625 109 114 143
1472 963 1281.7816162109375 124 134 159
1473 963 1282.639892578125 127 142 165
1474 963 1283.498291015625 115 130 153
1477 963 1284.3570556640625 138 144 170
1478 963 1285.2159423828125 135 141 167
1479 963 1286.0750732421875 135 139 164
1484 963 1287.7938232421875 153 153 181
1564 963 1335.979736328125 187 195 216
1750 963 1450.4295654296875 161 177 200
1757 963 1454.8748779296875 159 174 197
1765 963 1459.3238525390625 156 168 194
1874 963 1530.4747314453125 155 177 200
541 964 782.1431884765625 85 81 82
542 964 782.7036743164062 87 86 84
543 964 783.2649536132812 82 82 80
637 964 818.8430786132812 66 57 48
646 964 825.1363525390625 69 56 47
814 964 896.2862548828125 55 57 43
911 964 928.4379272460938 120 24 28
923 964 931.9667358398438 114 37 45
950 964 942.6329956054688 126 140 169
955 964 944.7803955078125 111 126 157
994 964 961.2767333984375 129 25 36
995 964 962.0020751953125 134 30 41
999 964 962.7279052734375 120 34 45
1000 964 963.4542236328125 117 46 62
1012 964 968.552001953125 132 136 165
1083 964 1003.1948852539062 69 67 91
1271 964 1143.8994140625 64 60 51
1278 964 1147.989990234375 66 61 55
1287 964 1152.9080810546875 65 56 51
1289 964 1154.5496826171875 68 61 55
1290 964 1155.3709716796875 72 67 61
1300 964 1161.950927734375 65 56 51
1305 964 1164.4229736328125 58 54 51
1462 964 1276.29541015625 66 74 85
1471 964 1281.4375 105 116 134
1472 964 1282.295166015625 108 124 139
1473 964 1283.1531982421875 94 113 127
1474 964 1284.0113525390625 104 126 140
1478 964 1285.7281494140625 127 140 159
1479 964 1286.5869140625 127 138 158
1480 964 1287.4459228515625 120 128 147
1483 964 1287.4459228515625 134 140 166
1484 964 1288.3050537109375 136 143 169
1485 964 1289.1644287109375 128 133 162
1486 964 1290.0240478515625 136 140 169
1758 964 1456.221435546875 155 171 196
1766 964 1460.669677734375 147 156 185
1767 964 1461.559814453125 149 158 187
538 965 782.971923828125 70 67 60
542 965 783.53173828125 82 82 82
615 965 812.4019775390625 66 57 48
864 965 910.2180786132812 112 27 32
900 965 924.2213134765625 126 26 34
913 965 929.1480102539062 123 23 31
915 965 930.5568237304688 123 26 33
918 965 931.2620239257812 130 35 43
951 965 944.047119140625 115 131 157
959 965 946.1944580078125 91 107 140
960 965 946.9113159179688 52 64 88
986 965 958.3804321289062 132 36 47
988 965 959.0714111328125 136 34 45
995 965 962.6904907226562 133 29 40
998 965 962.6904907226562 128 33 41
999 965 963.415771484375 119 33 44
1028 965 975.8201904296875 140 147 175
1268 965 1142.0262451171875 69 65 56
1277 965 1147.74609375 66 63 54
1282 965 1149.3829345703125 69 62 54
1296 965 1159.227783203125 61 57 48
1303 965 1163.341796875 66 57 52
1304 965 1164.1654052734375 70 63 57
1305 965 1164.9892578125 74 69 63
1469 965 1280.2379150390625 56 63 79
1472 965 1282.8094482421875 74 91 99
1473 965 1283.6669921875 87 107 114
1474 965 1284.5247802734375 74 97 105
1477 965 1285.3828125 96 118 129
1478 965 1286.2410888671875 105 123 135
1479 965 1287.0994873046875 112 128 141
1480 965 1287.9581298828125 109 123 132
1482 965 1287.0994873046875 126 138 152
1483 965 1287.9581298828125 129 142 159
1484 965 1288.81689453125 136 149 168
1485 965 1289.6759033203125 123 134 154
1486 965 1290.53515625 127 132 154
1608 965 1362.2293701171875 161 160 192
1612 965 1365.72509765625 168 176 197
1775 965 1467.3575439453125 162 178 204
1777 965 1469.13916015625 162 176 202
1783 965 1472.704345703125 147 168 189
539 966 782.6851196289062 73 72 68
540 966 783.2426147460938 83 82 80
542 966 784.3602294921875 68 70 67
955 966 946.176513671875 115 129 158
960 966 947.6085815429688 73 87 113
990 966 960.517578125 127 27 37
992 966 961.9656982421875 137 35 46
996 966 963.415771484375 132 30 41
997 966 962.6552124023438 138 38 48
1000 966 964.8295288085938 104 33 47
1028 966 976.4998779296875 135 141 167
1280 966 1148.3214111328125 72 68 56
1284 966 1151.5946044921875 77 69 58
1296 966 1159.79736328125 68 66 53
1311 966 1168.0281982421875 61 58 53
1321 966 1174.6326904296875 57 56 54
1477 966 1285.8966064453125 58 84 83
1478 966 1286.75439453125 75 99 99
1479 966 1287.612548828125 77 98 99
1480 966 1288.4708251953125 79 99 97
1483 966 1288.4708251953125 119 138 142
1484 966 1289.3292236328125 114 131 138
1485 966 1290.18798828125 112 125 133
1506 966 1302.2308349609375 162 161 193
1507 966 1303.092529296875 154 153 185
1609 966 1363.5897216796875 172 171 205
1612 966 1366.2108154296875 160 164 191
1616 966 1367.9591064453125 159 169 194
1783 966 1473.157470703125 151 173 194
1789 966 1475.8319091796875 141 161 186
1792 966 1478.5076904296875 144 159 188
539 967 783.5158081054688 70 69 65
877 967 915.8236694335938 118 27 34
955 967 946.8753662109375 127 141 170
959 967 947.5906372070312 105 120 151
960 967 948.306396484375 83 97 123
994 967 962.6552124023438 131 29 40
999 967 964.793212890625 129 42 51
1000 967 964.8295288085938 110 39 53
1033 967 979.3804321289062 139 143 172
1264 967 1139.924560546875 67 63 54
1268 967 1141.5533447265625 72 61 55
1271 967 1143.9986572265625 67 63 51
1273 967 1145.63037109375 61 55 43
1279 967 1148.080078125 64 62 49
1282 967 1150.532470703125 66 57 48
1291 967 1156.2646484375 65 63 48
1298 967 1160.3675537109375 65 67 53
1303 967 1164.4775390625 65 61 50
1310 967 1167.7705078125 70 67 58
1483 967 1288.984130859375 72 91 89
1485 967 1290.7005615234375 95 107 107
1486 967 1291.55908203125 100 105 108
1505 967 1301.87744140625 145 149 176
1506 967 1302.7386474609375 152 153 183
1507 967 1303.5999755859375 155 156 186
1623 967 1372.8167724609375 159 170 190
558 968 789.9493408203125 59 60 46
578 968 796.7860717773438 64 55 46
654 968 828.1183471679688 58 49 40
665 968 831.8125 61 55 43
990 968 961.899169921875 139 35 44
999 968 964.793212890625 124 37 46
1259 968 1135.8577880859375 66 61 57
1281 968 1150.2908935546875 66 57 48
1282 968 1151.108154296875 73 62 56
1286 968 1154.38037109375 68 62 50
1288 968 1154.38037109375 68 62 50
1295 968 1158.47705078125 64 60 48
1297 968 1160.11767578125 74 75 61
1299 968 1161.7593994140625 60 62 48
1301 968 1160.9383544921875 73 71 58
1304 968 1163.40234375 72 68 56
1324 968 1175.75927734375 64 61 56
1504 968 1301.525634765625 145 153 164
1505 968 1302.38623046875 144 152 165
1506 968 1303.2470703125 160 167 183
1507 968 1304.108154296875 152 159 178
1631 968 1377.67626953125 163 173 200
1811 968 1491.9078369140625 154 174 199
1815 968 1493.695068359375 155 168 200
1816 968 1494.5888671875 156 173 199
587 969 800.486083984375 69 60 53
641 969 822.212890625 66 57 48
677 969 836.9384765625 64 55 48
997 969 964.0357666015625 131 36 42
1000 969 966.20703125 120 46 61
1260 969 1137.8365478515625 60 55 49
1281 969 1150.8675537109375 60 51 44
1291 969 1157.410888671875 76 67 58
1294 969 1158.2301025390625 68 61 51
1295 969 1159.049560546875 66 59 49
1322 969 1174.673095703125 71 69 57
1325 969 1177.1490478515625 74 71 64
1334 969 1182.935791015625 50 52 47
1505 969 1302.8956298828125 122 130 133
1506 969 1303.756103515625 119 128 135
1507 969 1304.6168212890625 120 128 139
1535 969 1321.0072021484375 164 168 193
1811 969 1492.357177734375 149 173 197
1823 969 1499.5072021484375 149 170 197
587 970 801.3020629882812 67 60 50
694 970 843.9768676757812 67 54 48
985 970 959.7338256835938 136 55 64
986 970 960.455078125 128 38 48
1081 970 1004.3525390625 65 72 98
1255 970 1133.7799072265625 61 58 51
1277 970 1147.6026611328125 71 62 57
1281 970 1149.8126220703125 66 57 52
1304 970 1164.543212890625 64 55 46
1318 970 1171.94287109375 77 75 62
1319 970 1172.766357421875 80 78 65
1322 970 1175.2386474609375 76 74 61
1324 970 1176.8883056640625 71 71 59
1326 970 1176.8883056640625 62 60 48
1328 970 1178.5389404296875 97 94 79
1330 970 1180.190673828125 65 63 50
1332 970 1180.190673828125 66 68 57
1340 970 1186.808349609375 68 68 60
1505 970 1303.405517578125 76 77 79
1506 970 1304.2657470703125 88 92 95
1653 970 1391.7847900390625 164 171 199
1826 970 1502.6376953125 146 162 195
1831 970 1504.4267578125 148 169 196
1832 970 1505.321533203125 150 165 194
892 971 924.2667236328125 110 28 32
982 971 958.2677001953125 121 31 41
983 971 958.9869384765625 142 56 65
984 971 959.7067260742188 142 62 73
985 971 960.427001953125 134 54 65
986 971 961.1477661132812 131 41 53
987 971 960.427001953125 130 33 44
991 971 963.3130493164062 128 28 38
999 971 965.4827880859375 126 40 49
1056 971 991.65771484375 138 145 171
1082 971 1005.764404296875 67 74 100
1083 971 1006.5112915039062 62 68 92
1261 971 1137.60888671875 70 65 59
1271 971 1143.295654296875 70 62 59
1282 971 1150.6285400390625 71 62 57
1315 971 1170.042724609375 64 60 48
1316 971 1170.8651123046875 62 58 47
1321 971 1174.9808349609375 73 67 55
1337 971 1184.886474609375 82 78 67
1340 971 1184.886474609375 74 74 62
1661 971 1397.5299072265625 165 171 197
1665 971 1398.4080810546875 176 171 201
1850 971 1517.40869140625 148 163 192
481 972 764.210693359375 60 57 50
486 972 764.7306518554688 71 59 45
562 972 791.0120239257812 62 53 44
984 972 960.4009399414062 137 59 72
986 972 961.8409423828125 120 30 42
989 972 962.5617065429688 135 35 43
990 972 963.2828979492188 128 31 40
991 972 964.004638671875 125 28 37
994 972 964.7269287109375 127 27 37
995 972 965.4496459960938 130 30 40
1055 972 991.5951538085938 130 140 167
1068 972 997.5073852539062 132 139 168
1070 972 998.989990234375 124 136 162
1080 972 1004.9382934570312 77 84 103
1081 972 1005.683837890625 67 73 95
1082 972 1006.4298095703125 68 74 98
1258 972 1135.7623291015625 80 76 64
1260 972 1137.3829345703125 73 69 58
1266 972 1139.816162109375 66 59 53
1283 972 1150.970458984375 73 64 59
1284 972 1151.7855224609375 75 61 58
1329 972 1178.8438720703125 83 80 65
1332 972 1181.3187255859375 80 76 64
1335 972 1181.3187255859375 68 64 52
1340 972 1185.4488525390625 76 74 62
1352 972 1193.72900390625 55 54 49
1669 972 1402.3994140625 150 153 186
483 973 765.0653686523438 77 67 55
491 973 766.6264038085938 67 57 45
526 973 779.4722290039062 61 57 46
902 973 929.1910400390625 113 31 37
982 973 959.6588134765625 126 40 49
983 973 960.3770141601562 143 57 68
986 973 962.53466796875 134 46 60
987 973 963.2548828125 129 36 47
990 973 963.9756469726562 128 33 41
992 973 965.4185791015625 124 27 36
993 973 966.1407470703125 133 33 43
995 973 966.1407470703125 126 26 36
999 973 966.8634643554688 120 37 45
1069 973 998.919921875 122 129 158
1070 973 999.6609497070312 121 131 158
1081 973 1006.350341796875 80 85 105
1084 973 1008.588134765625 74 72 96
1268 973 1142.023681640625 78 75 66
1278 973 1148.52685546875 61 58 53
1281 973 1149.341064453125 70 65 59
1309 973 1166.259033203125 67 58 51
1313 973 1169.5400390625 72 63 58
1334 973 1181.058837890625 70 63 53
1340 973 1186.0118408203125 65 58 48
1341 973 1186.8382568359375 67 60 50
1343 973 1188.491943359375 78 71 61
1357 973 1195.946533203125 58 57 52
1684 973 1411.66748046875 150 162 188
1868 973 1530.8497314453125 143 158 187
480 974 765.4025268554688 69 65 56
618 974 812.7072143554688 66 57 48
793 974 887.34716796875 68 53 46
991 974 965.3895874023438 123 28 36
994 974 966.1107788085938 124 22 33
995 974 966.8324584960938 126 24 35
997 974 966.1107788085938 128 31 38
998 974 966.8324584960938 127 32 40
999 974 967.5546264648438 125 39 48
1000 974 968.27734375 117 44 61
1081 974 1007.0173950195312 65 68 87
1330 974 1180.800537109375 73 66 56
1331 974 1179.153076171875 71 64 54
1338 974 1184.924072265625 71 64 56
1351 974 1194.019287109375 71 66 60
1354 974 1194.019287109375 68 64 55
1356 974 1195.6763916015625 67 63 54
1358 974 1197.3345947265625 74 69 65
1685 974 1413.022705078125 160 171 199
1686 974 1413.90234375 156 170 196
1687 974 1414.7823486328125 149 163 189
1868 974 1531.291015625 147 164 192
480 975 766.2584228515625 69 62 54
483 975 766.7756958007812 76 66 56
494 975 767.2939453125 93 80 72
497 975 768.8543701171875 71 63 52
924 975 937.6331787109375 100 37 45
988 975 965.3626098632812 131 38 48
989 975 964.6429443359375 134 37 44
990 975 965.3626098632812 127 32 40
991 975 966.0828247070312 126 31 39
995 975 967.524658203125 130 28 39
998 975 967.524658203125 135 38 47
999 975 968.246337890625 124 37 46
1000 975 968.968505859375 118 45 62
1085 975 1010.6656494140625 61 59 80
1258 975 1135.09912109375 72 65 55
1310 975 1167.6514892578125 71 64 56
1336 975 1183.8394775390625 73 64 57
1354 975 1194.579833984375 69 65 56
1357 975 1197.064697265625 75 68 60
1360 975 1199.552001953125 66 61 57
1362 975 1199.552001953125 76 73 68
1592 975 1356.0755615234375 172 178 202
1886 975 1543.4046630859375 150 170 197
1888 975 1545.2022705078125 149 169 196
1893 975 1547.0003662109375 146 170 194
1894 975 1547.8995361328125 151 173 196
480 976 767.11474609375 68 61 53
489 976 768.1490478515625 84 74 62
492 976 768.6676635742188 86 76 66
494 976 768.1490478515625 91 81 71
495 976 768.6676635742188 85 77 66
496 976 769.187255859375 78 70 59
499 976 769.707763671875 82 72 62
605 976 807.9331665039062 61 54 44
611 976 810.2468872070312 67 56 50
894 976 935.5089721679688 72 56 43
895 976 936.213623046875 72 52 41
989 976 965.3377685546875 126 31 39
991 976 966.776611328125 125 30 38
992 976 967.4967651367188 127 27 35
993 976 966.776611328125 127 27 35
996 976 968.9385986328125 133 33 41
999 976 968.9385986328125 127 40 49
1086 976 1011.411865234375 53 51 72
1322 976 1174.7872314453125 73 64 59
1332 976 1181.11181640625 68 59 54
1368 976 1203.4293212890625 67 61 61
1369 976 1204.259521484375 73 67 67
1371 976 1205.9207763671875 65 61 58
1372 976 1204.259521484375 63 59 58
1711 976 1430.7061767578125 152 170 194
1893 976 1547.438232421875 150 172 196
1894 976 1548.337158203125 146 171 193
1895 976 1549.2362060546875 147 169 192
1896 976 1550.135498046875 142 159 185
1897 976 1551.0347900390625 139 155 181
490 977 769.5225830078125 87 78 63
494 977 769.0045776367188 82 72 62
495 977 769.5225830078125 87 79 68
496 977 770.0415649414062 81 73 62
499 977 770.5614624023438 79 69 59
502 977 771.0823364257812 74 62 50
768 977 875.6443481445312 71 50 45
988 977 965.3150024414062 120 30 40
993 977 967.470947265625 128 28 36
1028 977 981.9572143554688 135 140 169
1238 977 1123.612060546875 65 58 52
1271 977 1143.5545654296875 63 59 50
1274 977 1145.985107421875 70 66 57
1341 977 1187.4447021484375 74 65 60
1342 977 1188.269287109375 70 61 56
1370 977 1203.157470703125 76 71 67
1377 977 1208.97021484375 59 57 58
1723 977 1437.353759765625 164 178 204
1896 977 1550.5731201171875 148 170 194
1897 977 1551.47216796875 145 165 190
494 978 769.8603515625 91 78 69
495 978 770.3778076171875 87 77 67
498 978 770.896240234375 84 74 64
499 978 771.4155883789062 89 79 67
501 978 771.4155883789062 80 67 58
502 978 771.9358520507812 80 67 58
505 978 771.9358520507812 77 67 57
616 978 813.0362548828125 63 53 44
621 978 813.9692993164062 59 50 41
988 978 966.0114135742188 119 31 43
995 978 969.6045532226562 123 23 33
999 978 970.32470703125 128 42 51
1028 978 982.641845703125 142 148 174
1029 978 983.3707275390625 135 142 168
1081 978 1009.0217895507812 76 79 96
1084 978 1011.253662109375 55 56 76
1249 978 1127.8408203125 71 64 56
1274 978 1145.985107421875 74 70 59
1323 978 1174.288330078125 60 56 47
1339 978 1185.79638671875 78 71 63
1373 978 1206.204833984375 76 73 68
1375 978 1207.8651123046875 67 63 60
1378 978 1210.357421875 63 59 58
1717 978 1435.1766357421875 158 176 198
1723 978 1437.82373046875 166 177 205
488 979 769.3438720703125 84 75 66
489 979 769.8603515625 81 73 62
491 979 769.8603515625 79 69 57
496 979 771.7512817382812 85 75 66
502 979 772.7897338867188 96 83 74
504 979 772.27001953125 91 81 69
505 979 772.7897338867188 88 80 67
513 979 774.3545532226562 66 57 48
1000 979 971.7386474609375 119 51 64
1248 979 1128.8193359375 70 63 57
1260 979 1136.869873046875 77 70 62
1288 979 1152.021728515625 78 71 65
1319 979 1171.5843505859375 73 66 56
1322 979 1174.041259765625 81 77 68
1370 979 1204.2757568359375 68 63 59
1377 979 1210.0830078125 75 70 66
1384 979 1214.2388916015625 66 61 58
1385 979 1215.07080078125 63 58 55
1629 979 1379.81591796875 158 165 193
1717 979 1435.64794921875 169 190 209
491 980 770.716552734375 81 71 61
504 980 773.1248168945312 98 92 76
505 980 773.6439819335938 103 98 79
512 980 774.6851196289062 71 61 51
513 980 775.2070922851562 68 58 48
574 980 796.8268432617188 66 62 51
603 980 808.912841796875 64 57 47
755 980 870.791015625 69 54 47
950 980 951.0609741210938 120 134 163
951 980 951.7699584960938 118 132 161
999 980 971.0185546875 125 39 48
1038 980 987.6567993164062 134 141 169
1082 980 1011.1033325195312 62 63 81
1292 980 1155.8533935546875 90 77 69
1296 980 1159.105224609375 76 67 60
1303 980 1163.1766357421875 67 60 54
1370 980 1204.2757568359375 86 79 73
1385 980 1213.1319580078125 75 67 64
1750 980 1456.4356689453125 159 175 198
1751 980 1457.32080078125 163 179 204
1752 980 1458.2060546875 155 169 196
503 981 773.4623413085938 87 79 66
504 981 773.97998046875 83 77 61
512 981 775.5385131835938 95 85 75
514 981 775.5385131835938 71 61 51
518 981 776.582275390625 68 61 51
519 981 777.1055297851562 73 66 56
520 981 776.0599365234375 63 56 46
960 981 955.3140869140625 109 118 147
961 981 956.0250854492188 83 93 120
999 981 971.712890625 121 35 44
1240 981 1123.5999755859375 75 68 60
1248 981 1128.8193359375 63 56 48
1297 981 1158.8740234375 77 70 62
1387 981 1214.794189453125 78 71 65
1511 981 1310.4232177734375 79 88 97
1758 981 1462.212646484375 154 168 194
1759 981 1463.098388671875 149 161 187
480 982 769.6856689453125 73 66 58
512 982 776.3922729492188 94 84 74
515 982 776.9131469726562 90 80 70
518 982 777.4348754882812 80 74 62
519 982 777.9575805664062 84 78 66
520 982 776.9131469726562 64 58 46
521 982 777.4348754882812 66 58 47
522 982 777.9575805664062 70 60 50
594 982 804.6328125 69 70 56
605 982 809.1637573242188 81 72 63
960 982 956.0177612304688 109 120 148
961 982 956.728271484375 65 72 98
982 982 964.54443359375 126 41 48
1082 982 1011.1033325195312 62 63 81
1083 982 1011.8463134765625 60 61 79
1236 982 1119.8009033203125 71 64 54
1242 982 1124.6021728515625 61 52 45
1256 982 1135.4267578125 71 71 61
1384 982 1212.858154296875 72 62 61
1511 982 1310.936279296875 75 83 94
1767 982 1467.9921875 143 157 186
504 983 774.83544921875 84 74 65
514 983 777.2463989257812 94 81 72
518 983 778.287841796875 91 83 72
519 983 777.2463989257812 73 67 55
520 983 777.7666625976562 77 69 58
521 983 778.287841796875 74 64 54
522 983 778.8099975585938 72 62 52
525 983 779.3330688476562 67 58 49
527 983 780.3819580078125 60 54 42
763 983 873.7305297851562 66 48 44
960 983 956.7219848632812 94 104 131
981 983 966.6731567382812 110 37 44
990 983 969.5364990234375 127 40 48
1068 983 1002.8983154296875 127 137 164
1069 983 1003.6353759765625 133 143 170
1081 983 1011.0311279296875 72 73 91
1082 983 1011.773193359375 69 70 88
1286 983 1152.1566162109375 73 64 57
1305 983 1164.336669921875 65 56 49
1338 983 1185.3514404296875 84 77 69
1511 983 1311.449951171875 76 82 94
1512 983 1312.307861328125 93 100 116
1514 983 1314.0242919921875 126 130 155
1778 983 1476.4351806640625 153 167 194
480 984 771.4013061523438 64 57 49
483 984 771.9151611328125 81 72 65
518 984 779.1411743164062 86 78 65
519 984 778.1008911132812 79 71 58
520 984 778.62060546875 80 70 60
521 984 779.1411743164062 78 68 58
525 984 780.1852416992188 72 62 52
528 984 780.1852416992188 66 60 48
638 984 821.7597045898438 63 50 44
941 984 950.355712890625 84 90 106
960 984 957.4267578125 64 71 97
1069 984 1004.3112182617188 134 144 171
1070 984 1005.0482788085938 116 123 151
1081 984 1011.7020263671875 69 72 87
1082 984 1012.443603515625 63 66 83
1083 984 1013.185546875 62 63 81
1220 984 1112.241455078125 66 57 50
1511 984 1311.9642333984375 82 89 99
1512 984 1312.82177734375 106 113 129
1513 984 1313.6795654296875 128 135 154
1789 984 1482.2213134765625 148 170 193
490 985 773.8023071289062 79 71 60
491 985 773.287109375 72 64 53
492 985 773.8023071289062 77 68 59
493 985 774.3184204101562 86 77 68
528 985 781.0377807617188 73 65 54
529 985 781.5606079101562 67 59 48
535 985 782.6090698242188 83 75 64
801 985 890.20556640625 66 49 42
982 985 965.2445068359375 120 33 41
1069 985 1004.987548828125 122 131 160
1070 985 1005.72412109375 119 126 154
1071 985 1006.4611206054688 116 123 149
1219 985 1110.467041015625 65 56 49
1245 985 1127.2000732421875 71 60 54
1346 985 1189.77734375 67 62 56
1792 985 1485.3450927734375 151 168 194
490 986 774.6593017578125 78 68 58
491 986 774.1447143554688 78 68 58
492 986 774.6593017578125 84 74 65
494 986 774.1447143554688 71 62 53
495 986 774.6593017578125 89 80 71
498 986 775.1748046875 84 76 65
529 986 782.4129638671875 72 62 50
531 986 782.4129638671875 81 72 57
532 986 782.9361572265625 92 85 69
544 986 786.6244506835938 72 62 52
546 986 786.6244506835938 94 84 72
547 986 787.155029296875 77 67 55
780 986 881.8305053710938 69 50 44
959 986 957.4236450195312 61 75 101
984 986 967.3727416992188 140 45 53
1223 986 1114.2503662109375 66 57 50
