ply
format ascii 1.0
element vertex 1278
property float x
property float y
property float z
property float red
property float green
property float blue
end_header
1391 79 1038.2547607421875 175 183 204
1392 79 1039.2545166015625 183 196 212
1393 79 1040.2542724609375 176 192 207
1424 79 1059.1888427734375 164 176 192
1425 79 1060.188720703125 159 170 188
1546 79 1138.07421875 163 169 193
1547 79 1139.07421875 160 166 190
1548 79 1140.0740966796875 167 173 199
1615 79 1185.0341796875 165 184 201
1616 79 1186.0341796875 173 190 206
1617 79 1187.0341796875 177 194 210
1618 79 1188.0340576171875 153 168 187
1754 79 1281.0015869140625 157 175 195
1755 79 1282.0015869140625 171 190 207
1756 79 1283.0015869140625 170 189 204
1757 79 1284.0015869140625 176 198 212
1816 79 1326.0 162 188 205
1817 79 1327.0 165 193 207
1818 79 1328.0 162 189 206
1894 79 1383.0057373046875 142 156 182
1895 79 1384.0057373046875 135 147 173
1896 79 1385.0057373046875 139 153 179
1900 79 1386.0057373046875 137 157 181
1901 79 1387.0057373046875 144 164 188
1902 79 1388.0057373046875 137 157 181
1903 79 1389.0057373046875 154 176 197
1904 79 1390.0057373046875 147 173 190
794 80 735.6310424804688 54 82 85
795 80 734.635986328125 59 87 88
799 80 735.6310424804688 85 106 109
800 80 736.6260986328125 87 108 113
808 80 739.6113891601562 123 133 145
848 80 755.158935546875 117 130 139
869 80 763.856689453125 115 128 137
943 80 794.194580078125 135 147 159
949 80 798.1835327148438 150 160 170
987 80 813.8605346679688 139 151 163
988 80 814.8582763671875 136 148 162
1021 80 830.6292724609375 142 154 168
1143 80 891.9428100585938 166 177 195
1144 80 892.9417724609375 162 175 191
1145 80 893.9407348632812 150 163 179
1150 80 896.9375610351562 155 166 184
1182 80 913.7904663085938 167 180 197
1183 80 914.7896118164062 168 181 198
1238 80 945.6114501953125 160 168 187
1239 80 946.6107788085938 155 163 182
1240 80 947.6101684570312 170 182 198
1241 80 948.6094970703125 175 187 203
1242 80 949.60888671875 166 174 193
1244 80 949.60888671875 173 186 203
1245 80 950.6082153320312 180 193 209
1246 80 951.6076049804688 177 188 206
1274 80 967.4967651367188 158 169 189
1275 80 968.4962768554688 156 167 187
1276 80 969.4957275390625 157 168 188
1279 80 970.4952392578125 177 190 207
1284 80 972.4942016601562 172 184 200
1286 80 974.4932250976562 172 183 201
1315 80 991.3955078125 157 168 188
1316 80 992.3950805664062 168 179 197
1317 80 993.3947143554688 164 175 193
1320 80 994.394287109375 158 166 187
1321 80 995.3939208984375 178 186 207
1322 80 996.3934936523438 177 188 208
1323 80 997.3931274414062 160 171 191
1325 80 996.3934936523438 175 183 204
1326 80 997.3931274414062 184 196 212
1327 80 998.3927001953125 181 195 208
1392 80 1039.277099609375 183 196 212
1423 80 1058.2083740234375 161 167 189
1424 80 1059.208251953125 167 175 196
1425 80 1060.2080078125 169 177 198
1490 80 1101.1312255859375 156 164 185
1541 80 1136.0863037109375 164 175 195
1542 80 1137.086181640625 157 165 188
1544 80 1136.0863037109375 157 163 189
1547 80 1139.0860595703125 177 188 208
1668 80 1222.02001953125 153 170 190
1734 80 1268.0035400390625 153 169 194
1748 80 1278.0035400390625 161 182 201
1797 80 1312.0 163 183 208
1798 80 1313.0 159 176 202
1799 80 1314.0 150 170 195
1815 80 1325.0 151 173 194
1816 80 1326.0 156 178 199
1893 80 1382.0032958984375 148 164 189
1894 80 1383.0032958984375 146 160 186
1895 80 1384.0032958984375 154 168 194
1896 80 1385.0032958984375 152 168 193
1900 80 1386.0032958984375 144 165 186
1901 80 1387.0032958984375 145 167 188
1902 80 1388.0032958984375 156 179 197
1903 80 1389.0032958984375 163 189 204
1904 80 1390.0032958984375 153 181 193
790 81 733.7410888671875 55 75 84
793 81 734.7360229492188 61 82 85
839 81 751.2682495117188 120 133 141
869 81 763.9437255859375 138 150 162
939 81 793.2723388671875 129 142 151
943 81 794.2694702148438 144 157 166
986 81 812.9310913085938 136 148 160
987 81 813.9287719726562 136 148 160
988 81 814.9263916015625 139 151 165
1019 81 828.6965942382812 145 157 171
1020 81 829.6945190429688 148 157 172
1021 81 830.6925048828125 149 158 175
1140 81 891.9893798828125 153 166 183
1143 81 891.9893798828125 162 175 192
1144 81 892.9882202148438 170 183 199
1145 81 893.9871215820312 162 175 191
1178 81 912.83349609375 167 180 197
1182 81 913.8325805664062 181 194 211
1183 81 914.8316650390625 182 195 212
1228 81 940.6513671875 157 169 185
1238 81 945.64794921875 158 166 185
1239 81 946.647216796875 166 174 193
1240 81 947.6465454101562 179 191 207
1241 81 948.6458740234375 180 192 208
1244 81 949.6452026367188 169 180 198
1269 81 964.5309448242188 160 173 190
1273 81 966.5298461914062 172 183 203
1274 81 967.5293579101562 167 178 198
1275 81 968.52880859375 165 176 196
1276 81 969.5282592773438 149 160 180
1279 81 970.5277099609375 171 184 200
1315 81 991.4242553710938 155 166 186
1316 81 992.423828125 171 182 200
1317 81 993.4234008789062 180 191 209
1320 81 994.4229736328125 165 173 194
1321 81 995.4225463867188 182 190 211
1322 81 996.422119140625 174 185 203
1373 81 1028.303955078125 160 168 187
1375 81 1027.30419921875 164 170 194
1376 81 1028.303955078125 164 172 193
1377 81 1029.3035888671875 175 186 206
1378 81 1030.3033447265625 177 183 205
1423 81 1058.228759765625 171 177 201
1424 81 1059.228515625 178 186 207
1425 81 1060.228271484375 178 189 209
1485 81 1099.1473388671875 162 173 191
1534 81 1131.0994873046875 163 169 193
1535 81 1132.099365234375 161 169 192
1539 81 1134.0992431640625 167 173 197
1546 81 1138.098876953125 189 200 220
1547 81 1139.0987548828125 187 200 217
1601 81 1176.0513916015625 170 187 205
1729 81 1263.00634765625 153 167 193
1730 81 1264.00634765625 150 164 190
1731 81 1265.00634765625 157 173 198
1732 81 1266.00634765625 160 178 200
1733 81 1267.00634765625 158 179 200
1734 81 1268.00634765625 155 176 197
1789 81 1307.0003662109375 152 166 193
1792 81 1310.0003662109375 162 178 204
1795 81 1310.0003662109375 147 167 191
1796 81 1311.0003662109375 157 177 201
1797 81 1312.0003662109375 160 182 205
1798 81 1313.0003662109375 167 187 211
1799 81 1314.0003662109375 167 189 212
1885 81 1376.00146484375 145 167 188
1886 81 1377.00146484375 140 160 184
1887 81 1378.00146484375 131 151 175
1888 81 1379.00146484375 144 164 188
1889 81 1380.00146484375 147 168 189
1893 81 1382.00146484375 150 166 191
1894 81 1383.00146484375 152 168 191
1895 81 1384.00146484375 157 175 197
1896 81 1385.00146484375 160 182 203
1901 81 1387.00146484375 161 182 201
1902 81 1388.00146484375 166 192 207
1903 81 1389.00146484375 167 195 207
785 82 731.8531494140625 48 64 77
869 82 764.0320434570312 138 152 161
908 82 778.6347045898438 135 148 157
909 82 779.63134765625 132 145 154
943 82 794.3456420898438 155 168 176
982 82 812.0030517578125 144 156 168
983 82 813.0006103515625 145 157 169
986 82 813.0006103515625 156 170 179
987 82 813.9981689453125 151 165 174
1016 82 828.7611083984375 147 156 171
1020 82 829.7589721679688 160 172 186
1136 82 890.039306640625 159 172 189
1139 82 891.0381469726562 173 186 203
1140 82 892.0369873046875 164 180 195
1143 82 892.0369873046875 171 187 203
1144 82 893.0358276367188 172 188 203
1177 82 911.8777465820312 173 186 205
1178 82 912.8767700195312 179 192 208
1179 82 913.8757934570312 171 184 200
1181 82 912.8767700195312 159 170 190
1182 82 913.8757934570312 176 189 206
1226 82 938.6905517578125 158 169 187
1227 82 939.6898193359375 164 175 193
1228 82 940.6890869140625 161 169 188
1238 82 945.6854858398438 166 174 193
1268 82 963.5652465820312 165 176 196
1269 82 964.564697265625 171 182 200
1275 82 968.5623168945312 167 180 197
1276 82 969.561767578125 157 168 186
1279 82 970.5611572265625 173 186 202
1315 82 991.4539794921875 159 172 189
1316 82 992.4535522460938 179 192 208
1317 82 993.4530639648438 170 183 199
1318 82 994.45263671875 172 184 200
1371 82 1026.329345703125 167 175 196
1372 82 1027.3291015625 163 174 194
1373 82 1028.3287353515625 159 170 190
1375 82 1027.3291015625 159 170 192
1376 82 1028.3287353515625 171 187 203
1377 82 1029.328369140625 179 195 211
1378 82 1030.328125 179 190 208
1423 82 1058.25 183 191 212
1424 82 1059.249755859375 180 193 210
1425 82 1060.24951171875 178 191 208
1482 82 1096.1646728515625 167 175 196
1534 82 1131.1131591796875 167 173 197
1535 82 1132.113037109375 165 173 196
1536 82 1133.1129150390625 168 176 199
1542 82 1137.112548828125 179 195 210
1598 82 1173.0614013671875 170 187 205
1600 82 1175.061279296875 167 186 203
1601 82 1176.061279296875 164 181 199
1725 82 1262.0098876953125 159 177 197
1726 82 1263.0098876953125 159 182 200
1729 82 1263.0098876953125 161 179 201
1730 82 1264.0098876953125 160 178 200
1731 82 1265.0098876953125 174 195 214
1732 82 1266.0098876953125 168 194 209
1733 82 1267.0098876953125 159 187 201
1734 82 1268.0098876953125 154 182 196
1742 82 1274.009765625 157 183 200
1789 82 1307.0015869140625 160 176 201
1790 82 1308.0015869140625 156 174 198
1791 82 1309.0015869140625 160 180 204
1795 82 1310.0015869140625 157 182 202
1796 82 1311.00146484375 160 185 205
1797 82 1312.00146484375 170 195 215
1798 82 1313.00146484375 178 201 219
1799 82 1314.00146484375 160 186 203
1886 82 1377.0003662109375 148 173 193
1887 82 1378.0003662109375 146 173 192
1888 82 1379.0003662109375 152 179 198
1889 82 1380.0003662109375 154 180 197
1893 82 1382.0003662109375 157 175 197
1894 82 1383.0003662109375 159 182 200
1895 82 1384.0003662109375 161 187 204
1896 82 1385.0003662109375 157 184 201
782 83 730.961669921875 49 67 79
905 83 778.717529296875 130 142 154
909 83 779.7140502929688 145 158 167
1012 83 826.831298828125 149 161 175
1016 83 828.826904296875 164 173 188
1132 83 888.0906372070312 158 169 187
1135 83 889.0894165039062 171 182 200
1136 83 890.0881958007812 170 183 200
1139 83 891.0869750976562 179 192 209
1140 83 892.0857543945312 167 183 198
1141 83 893.0845336914062 160 178 192
1173 83 909.9241943359375 171 182 200
1174 83 910.9231567382812 169 182 199
1177 83 911.922119140625 176 189 206
1178 83 912.921142578125 174 187 203
1179 83 913.9201049804688 172 185 201
1222 83 937.730224609375 161 169 188
1223 83 938.7294311523438 162 170 189
1226 83 938.7294311523438 167 178 196
1227 83 939.7286987304688 177 188 206
1228 83 940.7279052734375 169 177 196
1267 83 962.6006469726562 156 164 185
1268 83 963.6000366210938 174 185 203
1269 83 964.5994262695312 175 186 204
1270 83 965.5987548828125 172 183 201
1315 83 991.4847412109375 165 178 197
1316 83 992.4842529296875 176 189 205
1317 83 993.4837646484375 172 185 201
1366 83 1023.3562622070312 171 182 202
1367 83 1024.3558349609375 160 171 191
1370 83 1025.3555908203125 164 172 195
1371 83 1026.355224609375 172 183 203
1372 83 1027.3548583984375 185 198 215
1373 83 1028.3544921875 167 180 197
1375 83 1027.3548583984375 155 168 187
1376 83 1028.3544921875 178 194 210
1377 83 1029.3541259765625 184 200 215
1378 83 1030.3538818359375 175 188 204
1408 83 1048.2747802734375 158 169 189
1409 83 1049.2745361328125 153 161 182
1410 83 1050.2742919921875 152 158 180
1423 83 1058.272216796875 183 194 214
1424 83 1059.27197265625 179 192 209
1477 83 1093.1829833984375 166 172 194
1527 83 1126.1282958984375 158 164 188
1528 83 1127.128173828125 159 167 188
1536 83 1133.1275634765625 175 186 204
1593 83 1171.0721435546875 175 194 209
1594 83 1172.0721435546875 168 190 204
1598 83 1173.072021484375 166 183 201
1599 83 1174.072021484375 168 185 203
1600 83 1175.0718994140625 154 171 189
1653 83 1211.041259765625 162 181 198
1655 83 1213.041259765625 149 170 187
1723 83 1260.0142822265625 152 168 191
1724 83 1261.0142822265625 169 187 207
1725 83 1262.0142822265625 166 187 206
1726 83 1263.0142822265625 166 189 207
1729 83 1263.0142822265625 157 178 199
1730 83 1264.0142822265625 177 198 217
1731 83 1265.0142822265625 179 202 218
1732 83 1266.01416015625 167 193 206
1733 83 1267.01416015625 164 192 204
1734 83 1268.01416015625 152 180 194
1783 83 1303.00341796875 160 181 202
1784 83 1304.00341796875 158 179 200
1785 83 1305.00341796875 165 187 208
1789 83 1307.00341796875 155 176 197
1790 83 1308.00341796875 165 187 208
1791 83 1309.00341796875 170 195 215
1794 83 1309.00341796875 153 178 198
1795 83 1310.00341796875 157 182 202
1796 83 1311.00341796875 170 192 213
1797 83 1312.00341796875 172 195 213
1798 83 1313.00341796875 165 188 206
1799 83 1314.00341796875 151 174 192
1887 83 1378.0 161 188 205
1888 83 1379.0 152 181 197
1894 83 1383.0 155 178 196
1895 83 1384.0 163 190 207
779 84 731.0663452148438 49 72 80
781 84 730.0718994140625 50 68 78
782 84 731.0663452148438 55 73 83
790 84 734.0497436523438 116 129 137
827 84 746.5775146484375 109 121 133
855 84 758.2380981445312 121 134 143
859 84 759.2338256835938 137 150 158
899 84 774.8161010742188 129 139 151
900 84 775.8125 130 140 150
901 84 776.808837890625 133 143 153
930 84 788.520751953125 134 144 156
974 84 808.1565551757812 137 146 161
975 84 809.1538696289062 135 144 159
1011 84 825.9006958007812 150 162 176
1130 84 886.143310546875 162 175 191
1131 84 887.1420288085938 170 183 199
1132 84 888.1407470703125 166 179 195
1135 84 889.1394653320312 175 187 203
1136 84 890.13818359375 175 189 202
1172 84 908.9708251953125 156 169 186
1173 84 909.9697875976562 169 182 199
1174 84 910.9686889648438 175 188 204
1218 84 935.7718505859375 153 166 183
1221 84 936.7710571289062 162 173 191
1222 84 937.7702026367188 169 180 198
1226 84 938.7694091796875 166 177 195
1227 84 939.7686157226562 179 190 208
1228 84 940.7677612304688 169 177 196
1268 84 963.6358032226562 188 200 216
1269 84 964.6351928710938 182 194 208
1362 84 1021.3838500976562 167 175 194
1366 84 1023.3831176757812 171 182 202
1367 84 1024.3826904296875 175 186 204
1370 84 1025.38232421875 159 170 192
1371 84 1026.3819580078125 182 195 214
1372 84 1027.381591796875 188 206 218
1375 84 1027.381591796875 163 174 194
1403 84 1046.2987060546875 152 163 181
1407 84 1047.2984619140625 166 174 195
1408 84 1048.298095703125 168 176 197
1409 84 1049.2978515625 172 180 201
1410 84 1050.297607421875 173 179 201
1411 84 1051.2972412109375 157 163 185
1530 84 1129.1434326171875 179 191 207
1536 84 1133.1429443359375 181 197 210
1592 84 1170.083740234375 167 182 203
1593 84 1171.083740234375 168 183 204
1717 84 1256.01953125 165 181 204
1723 84 1260.0194091796875 165 186 205
1724 84 1261.0194091796875 164 190 205
1725 84 1262.0194091796875 166 192 205
1729 84 1263.0194091796875 161 182 201
1730 84 1264.0194091796875 172 193 210
1731 84 1265.0194091796875 168 191 205
1775 84 1297.0062255859375 158 174 199
1776 84 1298.006103515625 150 166 189
1777 84 1299.006103515625 169 185 208
1782 84 1302.006103515625 155 177 198
1783 84 1303.006103515625 159 185 202
1784 84 1304.006103515625 163 191 205
1785 84 1305.006103515625 168 197 211
1788 84 1306.006103515625 159 182 200
1789 84 1307.006103515625 159 182 200
1790 84 1308.006103515625 169 195 212
1791 84 1309.006103515625 170 196 213
1792 84 1310.006103515625 163 189 204
1886 84 1377.0 157 182 202
1887 84 1378.0 156 182 199
1889 84 1380.0 156 184 198
775 85 729.1837768554688 37 65 69
781 85 730.1780395507812 78 95 105
823 85 745.680908203125 121 133 145
824 85 746.6759643554688 119 133 142
827 85 746.6759643554688 135 145 157
855 85 758.3310546875 129 142 151
859 85 759.32666015625 147 160 168
900 85 775.898193359375 138 148 158
901 85 776.8944702148438 144 154 164
902 85 777.8907470703125 145 158 167
926 85 787.6046142578125 137 150 159
930 85 788.601318359375 141 149 162
974 85 808.2301635742188 142 151 166
1129 85 885.196044921875 152 165 181
1130 85 886.1947021484375 158 171 187
1131 85 887.1932983398438 172 185 201
1132 85 888.1919555664062 158 174 189
1222 85 937.811279296875 168 179 197
1226 85 938.8104248046875 171 182 200
1227 85 939.8095703125 181 189 208
1254 85 954.6790161132812 157 168 188
1255 85 955.6782836914062 155 166 186
1256 85 956.6776123046875 150 161 183
1296 85 979.5560302734375 167 175 196
1297 85 980.5554809570312 170 181 201
1298 85 981.5548706054688 168 176 197
1299 85 982.5543212890625 168 176 197
1359 85 1018.4129638671875 163 171 192
1360 85 1019.41259765625 159 167 188
1361 85 1020.4121704101562 175 183 204
1362 85 1021.4117431640625 178 186 205
1366 85 1023.4109497070312 176 189 206
1367 85 1024.4105224609375 180 193 209
1402 85 1045.3233642578125 166 174 195
1403 85 1046.3231201171875 168 176 197
1404 85 1047.32275390625 166 174 195
1407 85 1047.32275390625 173 181 202
1408 85 1048.322509765625 181 192 210
1409 85 1049.3221435546875 187 195 214
1410 85 1050.3218994140625 179 187 208
1587 85 1167.096435546875 172 191 205
1639 85 1202.0599365234375 169 188 203
1717 85 1256.0255126953125 172 190 210
1723 85 1260.025390625 162 185 201
1724 85 1261.025390625 168 194 207
1775 85 1297.0096435546875 158 176 198
1776 85 1298.0096435546875 163 181 203
1777 85 1299.0096435546875 170 191 210
1782 85 1302.0096435546875 162 188 205
1783 85 1303.0096435546875 165 192 209
1784 85 1304.0096435546875 165 194 208
1785 85 1305.009521484375 166 195 209
1788 85 1306.009521484375 161 184 202
774 86 728.2973022460938 49 77 81
820 86 744.785888671875 115 127 139
821 86 745.7808227539062 118 130 142
823 86 745.7808227539062 119 131 143
824 86 746.7757568359375 130 144 155
847 86 754.4434814453125 123 133 145
848 86 755.43896484375 117 127 139
901 86 776.9813232421875 147 160 169
902 86 777.9774780273438 150 163 171
922 86 785.6932983398438 131 141 153
923 86 786.6898803710938 132 142 154
930 86 788.68310546875 151 161 171
931 86 789.6796875 145 155 165
974 86 808.3049926757812 146 158 170
1130 86 886.2471313476562 157 170 186
1157 86 901.0748901367188 164 176 192
1211 86 930.8598022460938 147 160 179
1222 86 937.8533935546875 169 180 198
1250 86 953.718017578125 162 170 191
1251 86 954.7172241210938 151 159 180
1254 86 954.7172241210938 170 181 201
1255 86 955.7164916992188 175 188 205
1256 86 956.7157592773438 164 177 196
1292 86 978.5908203125 166 177 195
1293 86 979.5902099609375 170 181 199
1296 86 979.5902099609375 167 178 198
1297 86 980.589599609375 176 189 206
1298 86 981.5889892578125 184 196 212
1299 86 982.5884399414062 169 181 197
1359 86 1018.4419555664062 163 174 194
1360 86 1019.4415283203125 163 174 194
1361 86 1020.4411010742188 184 195 213
1362 86 1021.440673828125 190 202 218
1366 86 1023.4397583007812 177 190 206
1393 86 1040.3504638671875 171 179 200
1397 86 1042.3497314453125 166 168 193
1398 86 1043.349365234375 168 173 195
1399 86 1044.34912109375 172 178 200
1402 86 1045.3487548828125 165 173 194
1403 86 1046.348388671875 184 192 213
1404 86 1047.3480224609375 177 188 206
1407 86 1047.3480224609375 178 189 207
1408 86 1048.3477783203125 186 200 213
1409 86 1049.347412109375 181 195 208
1410 86 1050.3470458984375 169 177 196
1581 86 1163.110107421875 176 191 210
1639 86 1202.0703125 166 178 200
1716 86 1255.0322265625 163 184 201
1717 86 1256.0322265625 172 195 209
1718 86 1257.0322265625 179 207 219
1774 86 1296.013916015625 160 186 203
1775 86 1297.013916015625 160 186 203
1776 86 1298.013916015625 159 185 200
1777 86 1299.013916015625 168 194 209
1778 86 1300.0137939453125 165 191 206
1782 86 1302.0137939453125 163 189 206
1783 86 1303.0137939453125 154 180 197
1784 86 1304.0137939453125 157 183 200
1858 86 1356.00146484375 139 159 184
1859 86 1357.00146484375 135 155 180
1860 86 1358.00146484375 132 156 180
768 87 727.4125366210938 45 63 67
771 87 727.4125366210938 48 72 76
772 87 728.406494140625 56 81 86
775 87 729.4004516601562 71 94 100
820 87 744.8872680664062 129 141 153
821 87 745.8820190429688 125 137 149
848 87 755.534912109375 141 151 163
852 87 757.5255737304688 139 153 162
889 87 772.08935546875 131 145 154
922 87 785.7766723632812 141 153 165
923 87 786.7731323242188 144 156 168
961 87 803.3959350585938 141 151 161
964 87 803.3959350585938 142 152 162
965 87 804.3929443359375 142 152 162
997 87 819.1275634765625 142 151 166
1118 87 879.3110961914062 166 177 195
1119 87 880.3096313476562 167 178 196
1120 87 881.30810546875 154 167 184
1155 87 899.1267700195312 154 165 185
1156 87 900.1255493164062 170 181 199
1157 87 901.124267578125 175 187 203
1209 87 928.9052734375 162 173 193
1210 87 929.904296875 152 165 184
1211 87 930.9033203125 147 162 181
1212 87 931.90234375 162 175 194
1245 87 950.7597045898438 167 175 194
1246 87 951.7589111328125 162 170 189
1249 87 952.7581176757812 162 170 191
1250 87 953.75732421875 172 180 199
1251 87 954.7565307617188 181 189 208
1254 87 954.7565307617188 177 188 208
1255 87 955.7557373046875 177 190 207
1256 87 956.7549438476562 168 181 198
1286 87 974.628662109375 153 161 182
1287 87 975.6279907226562 165 173 194
1288 87 976.6273803710938 162 170 191
1291 87 977.626708984375 167 175 196
1292 87 978.6260986328125 175 186 204
1293 87 979.6254272460938 176 189 206
1296 87 979.6254272460938 162 175 192
1297 87 980.6248168945312 179 192 209
1298 87 981.6241455078125 174 187 203
1299 87 982.62353515625 169 181 197
1359 87 1018.471923828125 170 181 201
1361 87 1020.470947265625 190 202 218
1362 87 1021.4705200195312 180 192 206
1391 87 1038.3775634765625 162 168 192
1392 87 1039.377197265625 164 172 193
1393 87 1040.3768310546875 166 174 195
1397 87 1042.3760986328125 176 180 205
1398 87 1043.375732421875 177 183 205
1399 87 1044.3753662109375 172 178 200
1402 87 1045.375 180 188 209
1403 87 1046.3746337890625 180 191 209
1404 87 1047.3743896484375 179 190 208
1407 87 1047.3743896484375 182 190 209
1408 87 1048.3740234375 181 193 209
1510 87 1114.1978759765625 160 166 190
1511 87 1115.19775390625 165 171 195
1514 87 1118.197265625 165 173 194
1578 87 1160.12451171875 155 167 189
1579 87 1161.12451171875 161 173 195
1580 87 1162.1243896484375 163 178 197
1634 87 1197.0819091796875 171 186 205
1716 87 1255.039794921875 164 185 202
1775 87 1297.0189208984375 154 180 197
1776 87 1298.0189208984375 166 192 207
1777 87 1299.0189208984375 160 186 201
1778 87 1300.018798828125 165 188 204
1852 87 1353.0032958984375 146 162 188
1853 87 1354.0032958984375 158 174 200
1858 87 1356.0032958984375 144 164 189
1859 87 1357.0032958984375 149 171 195
1860 87 1358.0032958984375 156 180 204
1861 87 1359.0032958984375 155 181 204
766 88 725.53564453125 57 72 79
767 88 726.5294189453125 52 67 72
771 88 727.523193359375 69 90 93
820 88 744.9899291992188 131 145 154
821 88 745.9845581054688 130 144 153
839 88 751.6514892578125 122 134 146
840 88 752.6466674804688 126 138 150
847 88 754.6370239257812 140 153 161
848 88 755.6322021484375 136 149 158
888 88 771.1835327148438 134 146 158
889 88 772.1793823242188 135 147 159
922 88 785.861328125 150 164 173
923 88 786.857666015625 153 166 175
961 88 803.4736938476562 142 152 164
965 88 804.4706420898438 146 156 168
993 88 818.202880859375 141 153 167
1114 88 878.3677978515625 162 175 192
1115 88 879.3662719726562 165 178 194
1118 88 879.3662719726562 168 181 197
1119 88 880.3646850585938 173 186 202
1120 88 881.3631591796875 161 174 191
1155 88 899.1774291992188 161 174 191
1156 88 900.1760864257812 174 186 202
1157 88 901.1748046875 173 185 201
1205 88 927.9509887695312 162 175 192
1206 88 928.949951171875 154 165 183
1210 88 929.9489135742188 161 177 193
1211 88 930.9478759765625 151 167 183
1241 88 948.8018798828125 161 169 188
1242 88 949.801025390625 163 171 192
1244 88 949.801025390625 158 166 187
1245 88 950.8001708984375 171 179 198
1246 88 951.7993774414062 175 183 202
1249 88 952.7985229492188 173 184 202
1250 88 953.7976684570312 186 198 212
1251 88 954.7968139648438 178 190 204
1285 88 973.665771484375 154 165 183
1286 88 974.6651000976562 160 171 191
1287 88 975.6643676757812 169 180 200
1288 88 976.6636962890625 179 190 208
1291 88 977.6630249023438 172 183 203
1292 88 978.662353515625 184 197 213
1293 88 979.6616821289062 178 194 209
1296 88 979.6616821289062 160 173 192
1346 88 1010.5067749023438 167 175 196
1347 88 1011.5062866210938 159 167 188
1391 88 1038.405029296875 166 170 195
1392 88 1039.4046630859375 171 177 199
1393 88 1040.404296875 169 177 196
1396 88 1041.40380859375 170 178 199
1397 88 1042.4034423828125 182 190 209
1398 88 1043.403076171875 179 191 207
1399 88 1044.4027099609375 176 187 205
1402 88 1045.40234375 177 188 206
1505 88 1112.2176513671875 167 171 196
1513 88 1117.2166748046875 179 195 210
1631 88 1197.093994140625 166 179 198
1693 88 1239.048828125 162 174 198
1756 88 1283.02490234375 157 178 199
1757 88 1284.02490234375 163 186 204
1758 88 1285.02490234375 172 198 215
1851 88 1352.005859375 140 157 183
1852 88 1353.005859375 152 169 195
1853 88 1354.005859375 159 176 202
1858 88 1356.005859375 155 177 200
1859 88 1357.005859375 155 180 200
1860 88 1358.005859375 155 180 200
1861 88 1359.005859375 167 193 210
763 89 724.6544189453125 54 74 81
765 89 726.6416015625 58 77 84
771 89 727.6351928710938 93 111 115
778 89 730.6161499023438 123 136 145
839 89 751.7506103515625 121 133 145
840 89 752.7456665039062 127 139 151
888 89 771.27490234375 154 164 176
889 89 772.2706909179688 150 162 174
922 89 785.9472045898438 144 159 166
957 89 801.55908203125 138 151 160
958 89 802.555908203125 143 156 165
961 89 803.552734375 151 164 173
989 89 816.2824096679688 152 161 176
993 89 818.27685546875 146 158 172
1110 89 876.4274291992188 165 177 193
1111 89 877.42578125 159 172 188
1113 89 877.42578125 150 163 182
1114 89 878.4241333007812 166 179 195
1115 89 879.4225463867188 174 187 203
1118 89 879.4225463867188 168 181 197
1145 89 894.2359619140625 161 174 190
1155 89 899.2291259765625 157 170 187
1199 89 924.0010986328125 154 167 186
1200 89 925.0 164 175 193
1201 89 925.9989013671875 161 172 190
1204 89 926.9978637695312 178 191 208
1205 89 927.9967651367188 169 182 199
1206 89 928.9956665039062 163 174 192
1210 89 929.99462890625 178 191 208
1239 89 946.8452758789062 159 167 186
1240 89 947.8444213867188 161 169 190
1241 89 948.843505859375 172 180 199
1242 89 949.8425903320312 170 178 199
1244 89 949.8425903320312 159 167 188
1245 89 950.8417358398438 179 187 206
1246 89 951.8408203125 178 190 206
1249 89 952.8399658203125 180 192 208
1250 89 953.839111328125 181 193 207
1251 89 954.8381958007812 180 192 206
1279 89 970.7053833007812 154 165 183
1284 89 972.7039794921875 172 183 201
1285 89 973.7032470703125 162 173 191
1286 89 974.7025146484375 162 173 193
1287 89 975.7017822265625 183 194 212
1288 89 976.7010498046875 192 204 220
1289 89 977.7003784179688 172 183 201
1291 89 977.7003784179688 171 179 200
1292 89 978.6996459960938 176 189 205
1345 89 1009.5394897460938 157 163 185
1346 89 1010.5389404296875 180 188 209
1347 89 1011.5384521484375 175 186 204
1391 89 1038.4334716796875 169 175 197
1392 89 1039.4329833984375 186 194 213
1393 89 1040.4326171875 177 188 206
1397 89 1042.4317626953125 180 192 208
1398 89 1043.431396484375 185 198 214
1500 89 1109.238525390625 162 168 190
1501 89 1110.23828125 166 174 195
1570 89 1155.15625 169 185 201
1691 89 1237.0582275390625 168 178 203
1692 89 1238.05810546875 168 180 204
1693 89 1239.05810546875 169 181 205
1756 89 1283.0316162109375 167 190 208
1757 89 1284.031494140625 168 194 209
1758 89 1285.031494140625 164 193 207
1844 89 1347.00927734375 144 161 187
1851 89 1352.00927734375 152 169 195
1852 89 1353.00927734375 161 181 205
1853 89 1354.00927734375 167 187 211
1858 89 1356.00927734375 155 177 198
1859 89 1357.0091552734375 164 189 209
1860 89 1358.0091552734375 163 189 206
1861 89 1359.0091552734375 165 191 208
1902 89 1388.00146484375 140 168 182
1903 89 1389.00146484375 149 177 191
758 90 724.7682495117188 47 66 64
760 90 724.7682495117188 60 78 80
763 90 724.7682495117188 66 87 92
764 90 725.7616577148438 65 84 90
771 90 727.7485961914062 113 128 135
772 90 728.7420654296875 120 134 143
808 90 740.2276611328125 128 135 151
840 90 752.845947265625 132 146 155
879 90 767.3851928710938 127 137 149
954 90 800.6428833007812 138 151 160
957 90 801.6395874023438 148 161 170
987 90 814.363525390625 141 150 165
988 90 815.3606567382812 141 150 167
1106 90 874.4884033203125 160 173 189
1107 90 875.4866943359375 155 167 183
1109 90 875.4866943359375 158 169 187
1110 90 876.4850463867188 166 178 194
1111 90 877.4833374023438 167 180 196
1113 90 877.4833374023438 151 167 182
1114 90 878.4816284179688 170 184 197
1115 90 879.47998046875 180 194 207
1143 90 892.2919921875 168 181 198
1144 90 893.29052734375 169 182 198
1199 90 924.0481567382812 158 169 189
1200 90 925.0469970703125 171 184 201
1201 90 926.0458984375 169 182 198
1205 90 928.0436401367188 175 191 206
1206 90 929.0425415039062 164 177 193
1239 90 946.8880615234375 156 164 185
1240 90 947.8871459960938 173 181 200
1241 90 948.8861694335938 183 195 211
1242 90 949.88525390625 177 188 206
1244 90 949.88525390625 167 175 194
1245 90 950.8843383789062 178 186 205
1246 90 951.8834228515625 179 191 207
1274 90 967.746337890625 161 169 190
1275 90 968.74560546875 153 161 180
1276 90 969.7448120117188 158 164 186
1279 90 970.7440185546875 163 175 191
1284 90 972.7424926757812 174 187 203
1285 90 973.7417602539062 159 171 187
1286 90 974.740966796875 166 177 195
1287 90 975.740234375 185 193 212
1288 90 976.739501953125 185 194 211
1345 90 1009.5726928710938 163 171 192
1346 90 1010.5721435546875 178 191 207
1347 90 1011.571533203125 179 195 208
1378 90 1030.4664306640625 160 166 188
1379 90 1031.4659423828125 156 164 185
1390 90 1037.4632568359375 160 168 187
1391 90 1038.4627685546875 173 184 202
1392 90 1039.46240234375 180 196 211
1393 90 1040.4619140625 178 194 209
1446 90 1074.33935546875 168 174 196
1499 90 1108.2598876953125 165 170 192
1563 90 1150.1739501953125 179 192 211
1564 90 1151.1737060546875 175 191 207
1565 90 1152.173583984375 164 180 196
1685 90 1234.0684814453125 164 176 200
1686 90 1235.068359375 169 184 207
1691 90 1237.068359375 170 187 207
1692 90 1238.0682373046875 168 186 206
1693 90 1239.0682373046875 169 187 207
1694 90 1240.068115234375 174 192 212
1749 90 1279.0390625 158 176 198
1755 90 1282.0389404296875 152 180 194
1756 90 1283.0389404296875 158 186 200
1757 90 1284.0389404296875 160 189 203
1758 90 1285.0389404296875 164 196 209
1840 90 1343.013427734375 152 168 193
1841 90 1344.013427734375 155 171 196
1842 90 1345.013427734375 153 171 195
1843 90 1346.013427734375 144 164 188
1852 90 1353.0133056640625 163 185 206
1853 90 1354.0133056640625 167 192 212
1901 90 1387.0032958984375 148 164 189
1902 90 1388.0032958984375 137 158 179
1903 90 1389.0032958984375 146 167 188
1904 90 1390.0032958984375 140 161 182
763 91 724.8834228515625 83 102 106
764 91 725.876708984375 97 115 119
772 91 728.8566284179688 115 128 137
876 91 767.4796142578125 134 146 158
879 91 767.4796142578125 143 153 165
905 91 779.1508178710938 132 142 152
909 91 780.1467895507812 146 156 168
949 91 798.7315063476562 133 146 155
954 91 800.7246704101562 141 151 163
984 91 814.4403076171875 142 151 166
1106 91 874.5473022460938 165 178 194
1109 91 875.5455322265625 158 169 187
1110 91 876.5437622070312 172 184 200
1140 91 892.3463745117188 169 180 198
1141 91 893.3448486328125 158 169 187
1143 91 892.3463745117188 171 184 201
1144 91 893.3448486328125 172 185 201
1145 91 894.3433227539062 168 181 197
1146 91 895.3418579101562 156 169 186
1199 91 924.0963134765625 168 179 199
1200 91 925.0951538085938 184 197 214
1201 91 926.0939331054688 180 193 209
1228 91 940.9378051757812 160 172 188
1239 91 946.931884765625 164 172 193
1240 91 947.930908203125 169 177 196
1241 91 948.929931640625 185 197 213
1275 91 968.7853393554688 169 177 196
1276 91 969.7844848632812 151 159 180
1279 91 970.78369140625 173 186 202
1280 91 971.7828979492188 163 175 191
1346 91 1010.6062622070312 176 189 205
1376 91 1028.4979248046875 158 163 185
1377 91 1029.4974365234375 167 172 194
1378 91 1030.4969482421875 164 170 192
1379 91 1031.4964599609375 170 178 199
1391 91 1038.4931640625 168 179 197
1490 91 1101.2838134765625 165 170 192
1492 91 1103.2833251953125 168 170 195
1678 91 1229.0797119140625 160 175 198
1679 91 1230.0797119140625 154 170 193
1680 91 1231.07958984375 158 174 197
1685 91 1234.0794677734375 177 192 215
1686 91 1235.079345703125 178 195 215
1691 91 1237.0792236328125 165 182 202
1692 91 1238.0791015625 169 187 207
1693 91 1239.0791015625 166 187 204
1749 91 1279.0472412109375 166 187 206
1750 91 1280.0472412109375 168 196 210
1755 91 1282.0472412109375 151 178 195
1756 91 1283.047119140625 159 187 201
1757 91 1284.047119140625 167 195 209
1758 91 1285.047119140625 159 188 204
1840 91 1343.0181884765625 164 185 206
1841 91 1344.0181884765625 167 188 209
1842 91 1345.0181884765625 157 175 197
1843 91 1346.0181884765625 151 171 195
1895 91 1384.0057373046875 132 157 177
1896 91 1385.0057373046875 134 160 177
1900 91 1386.0057373046875 148 162 189
1901 91 1387.0057373046875 151 167 193
1902 91 1388.0057373046875 152 170 194
1903 91 1389.0057373046875 141 162 183
1904 91 1390.0057373046875 148 168 192
1905 91 1391.0057373046875 144 165 186
753 92 722.020751953125 54 74 75
754 92 723.0138549804688 51 73 71
763 92 725.0 105 120 125
801 92 738.455810546875 119 129 141
827 92 747.0830078125 122 134 146
828 92 748.0775146484375 117 129 143
872 92 765.584716796875 130 144 153
901 92 777.2496337890625 137 147 159
902 92 778.2454833984375 129 139 151
905 92 779.2412719726562 145 155 167
980 92 812.5244750976562 147 156 171
1105 92 873.6091918945312 154 167 184
1106 92 874.6073608398438 169 181 197
1107 92 875.6055297851562 168 180 196
1136 92 890.4049682617188 162 175 192
1139 92 891.4033813476562 178 191 208
1140 92 892.4017944335938 169 182 198
1141 92 893.4002685546875 164 177 193
1144 92 893.4002685546875 176 188 204
1199 92 924.1455688476562 165 176 196
1200 92 925.144287109375 176 187 205
1226 92 938.985107421875 158 169 187
1227 92 939.9840698242188 158 169 187
1228 92 940.9829711914062 164 172 191
1268 92 963.8303833007812 163 174 192
1269 92 964.8295288085938 169 180 198
1270 92 965.8286743164062 159 170 188
1275 92 968.8261108398438 169 181 197
1276 92 969.8252563476562 154 162 181
1329 92 1000.6477661132812 164 172 193
1372 92 1027.530029296875 162 170 191
1373 92 1028.529541015625 158 169 189
1376 92 1028.529541015625 171 177 199
1377 92 1029.529052734375 184 190 212
1378 92 1030.528564453125 181 192 210
1484 92 1098.3077392578125 180 187 205
1490 92 1101.3070068359375 170 175 197
1492 92 1103.306396484375 173 175 200
1501 92 1110.304443359375 189 203 214
1677 92 1228.091552734375 156 172 195
1678 92 1229.091552734375 168 189 208
1679 92 1230.0914306640625 165 188 206
1680 92 1231.0914306640625 168 191 209
1685 92 1234.0911865234375 170 187 207
1686 92 1235.091064453125 183 202 217
1735 92 1269.0567626953125 159 170 198
1749 92 1279.0562744140625 164 185 204
1750 92 1280.0562744140625 169 195 210
1826 92 1334.0240478515625 151 173 196
1831 92 1337.02392578125 153 173 197
1832 92 1338.02392578125 152 172 196
1833 92 1339.02392578125 154 174 198
1840 92 1343.0238037109375 157 184 201
1841 92 1344.0238037109375 155 181 198
1842 92 1345.0238037109375 161 183 204
1894 92 1383.009033203125 142 164 187
1895 92 1384.009033203125 136 161 181
1896 92 1385.009033203125 145 170 190
1901 92 1387.009033203125 157 179 200
1902 92 1388.009033203125 149 174 194
1903 92 1389.009033203125 143 169 186
1904 92 1390.009033203125 145 172 191
1905 92 1391.009033203125 155 182 199
753 93 722.13916015625 60 80 79
763 93 725.117919921875 112 125 131
801 93 738.566162109375 130 137 153
824 93 747.1880493164062 126 138 150
872 93 765.6820678710938 134 148 157
876 93 767.6724853515625 144 154 164
900 93 776.345947265625 137 149 161
901 93 777.3416137695312 136 146 158
902 93 778.3373413085938 146 155 170
905 93 779.3330688476562 147 157 169
943 93 794.913818359375 133 143 155
975 93 809.6134643554688 137 149 163
976 93 810.6102905273438 138 150 164
1094 93 867.6819458007812 157 165 184
1095 93 868.6800537109375 154 162 181
1131 93 887.4666137695312 169 181 197
1132 93 888.4649658203125 159 171 187
1135 93 889.4633178710938 167 180 197
1136 93 890.461669921875 183 196 213
1139 93 891.4600219726562 172 185 202
1183 93 915.2076416015625 144 157 174
1222 93 938.0325317382812 158 169 187
1223 93 939.0314331054688 158 166 187
1226 93 939.0314331054688 165 176 194
1227 93 940.0303344726562 178 189 207
1228 93 941.0292358398438 175 183 202
1268 93 963.8723754882812 171 182 200
1269 93 964.8715209960938 174 185 203
1270 93 965.87060546875 169 180 198
1274 93 967.8687744140625 178 190 206
1275 93 968.867919921875 170 182 198
1327 93 998.6856079101562 168 179 197
1328 93 999.6849365234375 162 173 193
1329 93 1000.6842651367188 157 168 188
1367 93 1024.5643310546875 163 171 190
1371 93 1026.563232421875 170 176 198
1372 93 1027.5626220703125 166 177 197
1373 93 1028.5621337890625 163 174 194
1375 93 1027.5626220703125 164 170 192
1376 93 1028.5621337890625 178 184 206
1377 93 1029.5615234375 190 198 217
1378 93 1030.56103515625 179 192 209
1483 93 1097.332275390625 172 177 197
1484 93 1098.3319091796875 164 171 190
1485 93 1099.3316650390625 171 178 197
1491 93 1102.3306884765625 179 184 204
1547 93 1139.232177734375 184 198 211
1548 93 1140.23193359375 169 181 197
1677 93 1228.104248046875 152 173 192
1678 93 1229.1041259765625 158 181 197
1679 93 1230.10400390625 167 193 206
1680 93 1231.10400390625 171 197 212
1684 93 1233.103759765625 171 188 208
1685 93 1234.103759765625 180 197 215
1686 93 1235.1036376953125 179 198 213
1730 93 1264.06689453125 157 171 197
1731 93 1265.0667724609375 154 168 194
1732 93 1266.0667724609375 167 183 206
1733 93 1267.066650390625 168 184 207
1734 93 1268.066650390625 151 165 191
1735 93 1269.0665283203125 160 174 200
1826 93 1334.0303955078125 158 180 203
1831 93 1337.0302734375 156 178 199
1832 93 1338.0302734375 165 187 208
1833 93 1339.0302734375 164 186 207
1840 93 1343.0301513671875 164 191 208
1841 93 1344.0301513671875 145 172 189
1886 93 1377.0130615234375 150 168 192
1887 93 1378.0130615234375 142 160 184
1888 93 1379.0130615234375 145 165 189
1894 93 1383.0130615234375 139 164 186
1895 93 1384.0130615234375 151 176 196
1896 93 1385.012939453125 155 180 200
1897 93 1386.012939453125 155 181 198
1901 93 1387.012939453125 152 177 197
1902 93 1388.012939453125 163 190 207
1903 93 1389.012939453125 163 192 206
1904 93 1390.012939453125 166 195 211
1905 93 1391.012939453125 157 186 200
747 94 721.2662353515625 44 68 68
749 94 721.2662353515625 56 82 79
793 94 735.6969604492188 120 129 144
819 94 744.311767578125 128 140 152
820 94 745.3059692382812 119 133 144
821 94 746.3002319335938 128 142 153
824 94 747.29443359375 134 146 158
901 94 777.4348754882812 140 153 162
943 94 795.0 148 158 170
944 94 795.9962158203125 149 161 173
976 94 810.6910400390625 153 165 177
1094 94 867.7447509765625 168 177 194
1095 94 868.7427978515625 166 178 194
1130 94 886.5263671875 166 179 196
1131 94 887.524658203125 174 187 203
1132 94 888.52294921875 170 183 199
1135 94 889.521240234375 172 185 202
1136 94 890.51953125 169 182 198
1179 94 914.2609252929688 158 169 187
1182 94 914.2609252929688 162 173 191
1183 94 915.259521484375 162 173 191
1218 94 936.082275390625 164 175 193
1222 94 938.0799560546875 165 178 197
1223 94 939.0787963867188 169 180 200
1226 94 939.0787963867188 171 182 200
1227 94 940.07763671875 185 197 213
1228 94 941.0765380859375 183 192 209
1268 94 963.9154663085938 174 186 202
1269 94 964.9144897460938 178 191 207
1321 94 995.725341796875 164 175 195
1322 94 996.724609375 164 177 196
1323 94 997.7239379882812 158 169 189
1326 94 997.7239379882812 176 189 205
1327 94 998.7232055664062 182 198 213
1328 94 999.7224731445312 170 183 200
1362 94 1021.5997314453125 163 169 191
1366 94 1023.5985717773438 159 167 188
1367 94 1024.5980224609375 174 185 203
1371 94 1026.5968017578125 170 181 199
1372 94 1027.59619140625 182 198 211
1373 94 1028.595703125 182 198 211
1376 94 1028.595703125 179 187 208
1377 94 1029.5950927734375 184 195 213
1478 94 1094.3582763671875 168 174 196
1484 94 1098.35693359375 180 192 208
1489 94 1100.3563232421875 196 203 221
1541 94 1136.2535400390625 180 200 211
1542 94 1137.2532958984375 165 183 197
1545 94 1137.2532958984375 164 175 195
1546 94 1138.2530517578125 184 197 213
1547 94 1139.2528076171875 166 178 194
1677 94 1228.11767578125 171 194 208
1678 94 1229.1175537109375 169 192 206
1679 94 1230.117431640625 173 197 209
1680 94 1231.117431640625 172 195 209
1730 94 1264.0775146484375 155 177 198
1731 94 1265.0775146484375 166 192 209
1732 94 1266.077392578125 169 195 208
1733 94 1267.077392578125 172 195 209
1734 94 1268.0772705078125 167 188 205
1817 94 1327.0377197265625 152 173 200
1818 94 1328.03759765625 136 160 186
1824 94 1332.03759765625 155 180 202
1826 94 1334.0374755859375 158 185 202
1827 94 1335.0374755859375 163 190 207
1831 94 1337.037353515625 163 189 206
1832 94 1338.037353515625 164 190 207
1833 94 1339.037353515625 178 201 219
1886 94 1377.017822265625 145 162 188
1887 94 1378.017822265625 147 167 191
1888 94 1379.017822265625 146 168 191
1889 94 1380.0177001953125 153 180 199
1890 94 1381.0177001953125 153 182 198
1894 94 1383.0177001953125 144 173 191
1895 94 1384.0177001953125 156 183 202
1896 94 1385.0177001953125 157 184 201
1901 94 1387.0177001953125 164 190 207
1902 94 1388.0177001953125 155 183 197
1903 94 1389.017578125 163 193 204
1904 94 1390.017578125 166 195 209
746 95 720.39501953125 62 86 86
747 95 721.3875732421875 67 92 89
749 95 721.3875732421875 80 105 102
791 95 735.8104248046875 121 131 143
820 95 745.4140014648438 121 135 146
821 95 746.4080810546875 130 144 155
1093 95 866.810791015625 161 170 187
1094 95 867.8087158203125 173 185 201
1095 95 868.806640625 172 184 198
1130 95 886.5855712890625 166 179 195
1131 95 887.5838012695312 170 183 199
1132 95 888.58203125 170 183 199
1177 95 912.3168334960938 154 165 185
1178 95 913.3153686523438 164 175 193
1179 95 914.31396484375 169 180 198
1182 95 914.31396484375 173 184 202
1183 95 915.3125 180 191 209
1222 95 938.1284790039062 174 187 206
1226 95 939.1272583007812 168 181 197
1254 95 954.9685668945312 163 170 189
1255 95 955.9675903320312 172 179 198
1256 95 956.966552734375 167 174 193
1317 95 993.7655639648438 170 178 197
1318 95 994.7647705078125 160 166 188
1321 95 995.7640380859375 169 180 200
1322 95 996.7632446289062 179 192 209
1323 95 997.7625122070312 178 191 208
1326 95 997.7625122070312 186 199 215
1327 95 998.76171875 187 203 216
1359 95 1018.6363525390625 161 169 190
1360 95 1019.6357421875 161 167 191
1361 95 1020.6350708007812 178 184 208
1362 95 1021.6344604492188 169 177 198
1366 95 1023.6332397460938 178 189 209
1367 95 1024.632568359375 181 194 211
1368 95 1025.6319580078125 175 188 205
1371 95 1026.63134765625 184 195 213
1372 95 1027.6307373046875 184 198 211
1425 95 1060.48291015625 168 175 194
1540 95 1135.2752685546875 176 194 206
1541 95 1136.2750244140625 169 187 199
1717 95 1256.089599609375 156 166 191
1724 95 1261.0892333984375 168 184 207
1725 95 1262.089111328125 167 185 205
1726 95 1263.089111328125 172 189 209
1729 95 1263.089111328125 163 184 203
1730 95 1264.0889892578125 169 195 212
1731 95 1265.0889892578125 171 199 213
1732 95 1266.0888671875 169 197 208
1733 95 1267.0887451171875 167 194 205
1817 95 1327.0455322265625 150 172 196
1818 95 1328.0455322265625 151 177 202
1819 95 1329.0455322265625 157 185 209
1824 95 1332.04541015625 167 192 212
1825 95 1333.04541015625 166 193 210
1826 95 1334.04541015625 163 191 205
1855 95 1356.036865234375 165 187 208
1886 95 1377.023193359375 149 167 191
1887 95 1378.023193359375 161 181 205
1888 95 1379.023193359375 157 182 202
1889 95 1380.023193359375 156 185 201
1890 95 1381.023193359375 153 185 198
1896 95 1385.0230712890625 155 182 199
752 96 721.5101928710938 112 130 130
820 96 745.5233154296875 131 144 153
821 96 746.5172729492188 135 148 157
860 96 761.0078735351562 136 148 160
888 96 771.6534423828125 139 149 161
889 96 772.648681640625 136 148 160
931 96 790.1961669921875 133 146 155
965 96 804.8776245117188 147 156 171
966 96 805.8740844726562 147 154 170
1119 96 880.6571655273438 160 171 189
1120 96 881.6552734375 152 163 181
1172 96 909.3756103515625 155 166 186
1173 96 910.3740844726562 164 175 195
1174 96 911.3726196289062 162 175 194
1177 96 912.37109375 162 173 193
1178 96 913.3695678710938 173 184 202
1179 96 914.3681030273438 175 188 205
1182 96 914.3681030273438 178 190 206
1183 96 915.3665771484375 180 192 208
1211 96 931.1868896484375 155 168 185
1212 96 932.1856079101562 156 167 185
1250 96 954.0151977539062 168 175 193
1251 96 955.01416015625 163 170 188
1254 96 955.01416015625 172 180 199
1255 96 956.0130615234375 186 195 212
1256 96 957.0120239257812 176 185 202
1257 96 958.010986328125 153 162 179
1316 96 992.80615234375 171 179 198
1317 96 993.8052978515625 179 188 205
1318 96 994.8045043945312 171 178 197
1321 96 995.8037109375 176 187 205
1322 96 996.8029174804688 185 198 214
1323 96 997.8020629882812 177 190 206
1359 96 1018.6721801757812 163 174 194
1360 96 1019.6715087890625 155 163 184
1361 96 1020.6708374023438 185 193 214
1362 96 1021.6702270507812 180 193 209
1366 96 1023.6688842773438 178 191 208
1367 96 1024.668212890625 181 194 211
1530 96 1129.29931640625 182 198 211
1535 96 1132.298583984375 172 188 201
1536 96 1133.29833984375 169 185 200
1654 96 1212.14892578125 159 174 195
1655 96 1213.1488037109375 160 177 197
1669 96 1223.1475830078125 176 195 209
1717 96 1256.1019287109375 167 179 201
1718 96 1257.101806640625 173 185 207
1724 96 1261.1015625 169 192 208
1725 96 1262.1014404296875 174 200 213
1726 96 1263.101318359375 167 190 204
1730 96 1264.101318359375 169 192 208
1731 96 1265.1011962890625 160 183 197
1817 96 1327.05419921875 154 179 201
1818 96 1328.05419921875 160 188 209
1819 96 1329.05419921875 160 191 211
1824 96 1332.0540771484375 161 187 204
1887 96 1378.0294189453125 158 180 201
1888 96 1379.0294189453125 161 189 203
1889 96 1380.029296875 161 190 204
1890 96 1381.029296875 152 184 195
737 97 718.6577758789062 50 69 67
856 97 760.116455078125 133 143 155
859 97 760.116455078125 143 155 167
888 97 771.7512817382812 143 153 165
889 97 772.7463989257812 145 157 169
890 97 773.7415771484375 141 155 166
930 97 789.2908325195312 138 152 161
931 97 790.2866821289062 134 147 156
1040 97 841.2877197265625 157 171 184
1115 97 879.7210083007812 168 179 197
1119 97 880.718994140625 177 188 206
1120 97 881.7171020507812 161 172 190
1172 97 909.43115234375 158 169 189
1173 97 910.4295654296875 167 178 198
1174 97 911.427978515625 175 188 207
1177 97 912.4264526367188 175 186 206
1178 97 913.4248657226562 182 195 212
1179 97 914.42333984375 180 193 210
1206 97 929.2405395507812 154 167 184
1209 97 929.2405395507812 168 181 200
1210 97 930.2391967773438 165 178 195
1211 97 931.2379150390625 157 170 187
1212 97 932.236572265625 160 171 191
1246 97 952.0640869140625 167 176 193
1249 97 953.0629272460938 173 180 199
1250 97 954.0618286132812 175 182 201
1251 97 955.0607299804688 180 187 206
1254 97 955.0607299804688 176 187 205
1255 97 956.0596313476562 187 199 215
1256 97 957.0585327148438 176 185 202
1257 97 958.0574340820312 163 172 189
1316 97 992.846923828125 177 186 203
1317 97 993.8460693359375 186 195 212
1318 97 994.84521484375 184 191 209
1359 97 1018.708984375 164 175 195
1360 97 1019.7083129882812 156 164 185
1361 97 1020.7075805664062 180 191 209
1362 97 1021.7069091796875 178 194 207
1530 97 1129.32275390625 167 183 196
1654 97 1212.1650390625 161 178 198
1655 97 1213.1649169921875 171 189 209
1656 97 1214.1646728515625 166 184 204
1717 97 1256.114990234375 166 181 200
1718 97 1257.114990234375 171 188 206
1724 97 1261.1146240234375 165 188 204
1725 97 1262.114501953125 169 192 206
1726 97 1263.1143798828125 163 186 200
1799 97 1314.0643310546875 149 167 191
1800 97 1315.064208984375 150 168 192
1817 97 1327.063720703125 165 187 208
1860 97 1358.036865234375 150 173 191
735 98 716.7998046875 58 77 73
746 98 720.7676391601562 114 129 132
782 98 732.1871337890625 119 129 141
809 98 741.7715454101562 132 144 158
879 98 767.8704223632812 138 150 162
880 98 768.8654174804688 130 142 154
923 98 787.3912353515625 135 147 159
925 98 787.3912353515625 134 146 158
926 98 788.386962890625 134 144 156
