ply
format ascii 1.0
element vertex 1237
property float x
property float y
property float z
property float red
property float green
property float blue
end_header
1020 297 853.1177978515625 201 209 222
1024 297 854.0919189453125 188 197 212
1025 297 855.0661010742188 177 187 199
1212 297 948.6226806640625 195 207 219
1213 297 949.6041259765625 182 194 206
1214 297 950.5856323242188 176 183 199
1220 297 954.5119018554688 174 181 197
1225 297 957.45703125 175 181 197
1229 297 958.4388427734375 187 192 211
1230 297 959.420654296875 181 188 206
1243 297 967.276611328125 200 207 223
1299 297 998.1808471679688 198 204 220
1300 297 999.1646728515625 203 209 223
1329 297 1015.7184448242188 203 204 222
1454 297 1093.6104736328125 184 183 201
1459 297 1095.585693359375 189 190 208
1460 297 1096.5732421875 193 194 212
1461 297 1097.5609130859375 193 194 212
1622 297 1203.36572265625 194 208 221
1623 297 1204.356201171875 200 216 229
1627 297 1206.33740234375 195 209 222
1628 297 1207.3280029296875 193 209 224
1629 297 1208.3187255859375 194 210 225
1634 297 1211.2906494140625 188 200 214
1635 297 1212.2813720703125 178 190 204
1805 297 1329.66162109375 180 209 223
1806 297 1330.654296875 186 215 229
1849 297 1361.200927734375 184 205 224
1851 297 1363.1875 168 186 208
1852 297 1364.1806640625 174 192 216
893 298 798.7052001953125 183 190 206
905 298 803.5452880859375 177 184 200
906 298 804.5134887695312 172 177 196
1016 298 851.3970947265625 195 204 219
1017 298 852.3707885742188 187 196 211
1020 298 853.3446044921875 186 194 207
1204 298 945.87158203125 194 202 215
1208 298 947.8338623046875 194 200 214
1212 298 948.8150634765625 190 200 212
1213 298 949.7962646484375 186 193 209
1214 298 950.777587890625 173 176 195
1229 298 958.6292114257812 198 206 219
1230 298 959.61083984375 197 209 221
1231 298 960.592529296875 188 200 212
1288 298 992.4595947265625 183 184 202
1289 298 993.4429931640625 192 195 212
1290 298 994.4264526367188 193 200 216
1294 298 996.3934936523438 198 210 224
1295 298 997.3770751953125 199 213 224
1299 298 998.3606567382812 196 202 218
1324 298 1013.925537109375 202 210 223
1325 298 1014.9098510742188 198 206 219
1448 298 1089.81884765625 180 182 197
1449 298 1090.80615234375 180 182 197
1454 298 1093.768310546875 195 198 213
1455 298 1094.7557373046875 194 197 212
1459 298 1095.7431640625 201 208 224
1460 298 1096.7305908203125 198 206 219
1461 298 1097.7181396484375 198 204 218
1621 298 1202.5128173828125 193 207 218
1622 298 1203.503173828125 196 213 223
1623 298 1204.49365234375 187 201 212
1628 298 1207.465087890625 189 196 215
1629 298 1208.45556640625 183 190 209
1797 298 1324.8192138671875 185 206 223
1798 298 1325.811767578125 185 208 224
1799 298 1326.804443359375 184 207 223
1840 298 1355.358642578125 178 204 221
705 299 735.1421508789062 92 95 104
706 299 736.0985107421875 106 110 113
1202 299 944.1038208007812 199 206 222
1203 299 945.0846557617188 199 206 222
1213 299 949.989501953125 170 177 193
1214 299 950.9705810546875 175 178 197
1224 299 956.8578491210938 201 207 223
1229 299 958.8206176757812 202 210 223
1230 299 959.8020629882812 195 207 219
1282 299 989.69189453125 198 194 217
1288 299 992.6414184570312 194 197 214
1290 299 994.6079711914062 204 213 228
1375 299 1045.09765625 191 194 211
1447 299 1088.9908447265625 200 202 217
1448 299 1089.97802734375 194 200 214
1449 299 1090.9652099609375 199 205 219
1453 299 1092.9395751953125 200 206 220
1454 299 1093.9268798828125 201 207 221
1455 299 1094.9141845703125 197 203 217
1459 299 1095.9014892578125 201 208 224
1460 299 1096.8887939453125 199 205 219
1622 299 1203.6416015625 183 195 209
1785 299 1317.00146484375 184 210 225
1790 299 1319.978759765625 181 202 219
1791 299 1320.97119140625 174 197 213
1792 299 1321.9637451171875 186 212 229
1832 299 1349.5184326171875 176 197 216
1833 299 1350.5113525390625 182 203 222
1834 299 1351.50439453125 189 210 229
703 300 733.523681640625 69 73 84
1002 300 845.0443725585938 201 211 223
1202 300 944.2991943359375 181 184 203
1203 300 945.2798461914062 180 183 202
1208 300 948.2220458984375 173 179 195
1213 300 950.1836547851562 185 195 207
1214 300 951.16455078125 178 184 200
1281 300 988.892333984375 206 213 229
1282 300 989.875244140625 198 204 220
1363 300 1037.3851318359375 179 178 196
1364 300 1038.370361328125 182 183 201
1447 300 1089.1510009765625 199 205 219
1448 300 1090.1380615234375 197 209 221
1449 300 1091.1251220703125 200 213 222
1604 300 1190.9093017578125 200 212 224
1605 300 1191.8992919921875 197 207 219
1783 300 1315.1402587890625 178 204 219
1784 300 1316.132568359375 183 211 225
1824 300 1343.680419921875 181 198 216
1825 300 1344.6732177734375 186 205 222
1826 300 1345.666015625 180 203 219
1827 300 1346.6588134765625 184 207 223
969 301 830.2030029296875 197 206 221
1002 301 845.27685546875 182 192 204
1185 301 934.6935424804688 199 208 223
1186 301 935.673583984375 201 210 225
1202 301 944.49560546875 174 177 196
1203 301 945.47607421875 182 183 203
1204 301 946.45654296875 179 180 201
1208 301 948.4176025390625 188 193 212
1213 301 950.3788452148438 195 205 217
1214 301 951.3595581054688 181 187 203
1270 301 982.1985473632812 197 200 217
1271 301 983.1810913085938 207 210 227
1272 301 984.16357421875 200 206 222
1427 301 1076.4849853515625 180 179 197
1597 301 1187.0914306640625 186 204 216
1598 301 1188.0811767578125 185 209 221
1599 301 1189.071044921875 183 207 219
1603 301 1190.0609130859375 186 195 210
1605 301 1192.0406494140625 191 199 212
825 302 774.4546508789062 180 189 206
826 302 775.41796875 176 185 202
988 302 839.6785278320312 187 194 210
992 302 840.6503295898438 190 197 213
1180 302 932.9335327148438 194 203 220
1181 302 933.9132690429688 197 206 223
1182 302 934.89306640625 196 203 221
1185 302 934.89306640625 196 201 220
1186 302 935.8728637695312 193 200 218
1202 302 944.6930541992188 196 202 218
1203 302 945.6732788085938 197 203 219
1204 302 946.653564453125 188 193 212
1208 302 948.6142578125 197 206 223
1212 302 949.5946655273438 204 214 226
1270 302 982.3853759765625 201 211 223
1271 302 983.36767578125 200 210 222
1272 302 984.3500366210938 202 212 224
1300 302 999.8889770507812 206 216 228
1426 302 1075.66259765625 190 191 209
1427 302 1076.64892578125 196 199 216
1591 302 1183.2755126953125 201 213 227
1592 302 1184.26513671875 196 210 223
1597 302 1187.234130859375 191 203 217
1598 302 1188.223876953125 179 195 210
1763 302 1300.509521484375 187 206 223
1764 302 1301.50146484375 189 210 227
1765 302 1302.493408203125 183 209 224
1766 302 1303.4853515625 182 208 223
1913 302 1408.11962890625 161 188 205
959 303 827.7741088867188 192 201 216
992 303 840.8864135742188 175 182 198
993 303 841.8580932617188 178 185 201
1176 303 931.1755981445312 193 200 216
1177 303 932.155029296875 197 204 220
1181 303 934.114013671875 185 192 210
1182 303 935.0935668945312 175 182 200
1184 303 934.114013671875 171 176 195
1185 303 935.0935668945312 179 184 203
1186 303 936.0731811523438 175 180 200
1202 303 944.8915405273438 206 212 228
1203 303 945.87158203125 201 208 224
1253 303 973.735595703125 183 184 204
1426 303 1075.82763671875 200 203 220
1427 303 1076.8138427734375 200 207 223
1428 303 1077.800048828125 192 199 215
1583 303 1177.48291015625 192 204 216
1584 303 1178.4722900390625 194 208 219
1585 303 1179.4617919921875 199 213 224
1586 303 1180.451171875 195 209 220
1592 303 1184.4091796875 181 193 207
1593 303 1185.398681640625 184 193 208
1797 303 1325.1871337890625 185 202 222
1798 303 1326.179443359375 190 207 227
1799 303 1327.1717529296875 189 207 227
1800 303 1328.1641845703125 186 202 225
1904 303 1402.273193359375 180 206 221
1905 303 1403.2666015625 169 197 211
1910 303 1405.25341796875 182 208 223
1911 303 1406.246826171875 177 205 219
1912 303 1407.240234375 171 199 213
1913 303 1408.233642578125 168 197 211
1914 303 1409.22705078125 164 193 207
980 304 836.2678833007812 197 203 219
1059 304 872.3049926757812 197 204 220
1176 304 931.3779907226562 184 189 208
1177 304 932.3572387695312 181 186 205
1181 304 934.3157958984375 177 180 199
1185 304 935.295166015625 182 187 206
1186 304 936.2745361328125 182 187 206
1252 304 972.9445190429688 195 201 217
1253 304 973.9260864257812 196 203 219
1254 304 974.90771484375 194 200 216
1257 304 974.90771484375 200 207 223
1258 304 975.8893432617188 203 210 226
1259 304 976.8710327148438 194 201 217
1406 304 1064.16259765625 166 165 183
1412 304 1067.1199951171875 189 188 206
1583 304 1177.6285400390625 180 186 202
1584 304 1178.6177978515625 190 196 212
1585 304 1179.607177734375 189 196 212
1586 304 1180.596435546875 186 193 209
1790 304 1320.350341796875 172 190 210
1791 304 1321.342529296875 178 200 221
1792 304 1322.334716796875 177 204 221
1793 304 1323.326904296875 172 199 216
1895 304 1395.4354248046875 166 184 206
1896 304 1396.4287109375 176 202 219
1897 304 1397.421875 174 203 219
1902 304 1400.4017333984375 165 188 206
1903 304 1401.39501953125 176 199 217
1904 304 1402.3883056640625 173 201 215
1905 304 1403.381591796875 166 195 209
1911 304 1406.361572265625 180 203 219
1912 304 1407.35498046875 182 208 221
1913 304 1408.3482666015625 164 192 204
1914 304 1409.3416748046875 164 194 205
705 305 736.025146484375 93 93 101
706 305 736.9803466796875 108 111 116
707 305 737.9356079101562 118 122 125
708 305 738.8910522460938 134 138 139
980 305 836.5076293945312 180 187 203
1176 305 931.5814208984375 173 178 197
1177 305 932.5604248046875 171 177 193
1181 305 934.5186157226562 189 192 211
1185 305 935.4977416992188 198 205 223
1186 305 936.4769287109375 197 204 222
1247 305 970.1922607421875 198 204 220
1248 305 971.1735229492188 203 209 225
1249 305 972.1548461914062 198 205 221
1252 305 973.1361694335938 198 205 221
1253 305 974.1175537109375 196 204 217
1405 305 1063.345703125 189 188 206
1406 305 1064.331298828125 188 189 207
1412 305 1067.2882080078125 200 201 219
1413 305 1068.2738037109375 191 192 210
1567 305 1166.8955078125 208 215 231
1568 305 1167.8843994140625 206 215 230
1569 305 1168.8734130859375 204 216 228
1738 305 1283.04638671875 198 217 231
1739 305 1284.0377197265625 194 212 226
1783 305 1315.5155029296875 180 198 218
1784 305 1316.5074462890625 184 202 222
1785 305 1317.49951171875 187 205 225
1894 305 1394.5587158203125 176 197 218
1895 305 1395.5518798828125 178 200 221
1896 305 1396.5450439453125 174 201 218
1897 305 1397.5382080078125 174 203 217
1898 305 1398.5313720703125 174 203 217
1902 305 1400.517822265625 179 202 220
1903 305 1401.510986328125 168 191 209
1904 305 1402.504150390625 175 202 219
1905 305 1403.4974365234375 168 197 213
1911 305 1406.4771728515625 157 180 196
1912 305 1407.470458984375 157 183 196
704 306 735.3672485351562 76 79 86
705 306 736.3219604492188 96 99 106
706 306 737.2767333984375 109 110 115
707 306 738.231689453125 120 121 125
708 306 739.1867065429688 129 130 132
966 306 830.9271850585938 198 207 222
969 306 830.9271850585938 198 205 221
970 306 831.897216796875 197 204 220
1159 306 922.0005493164062 194 201 217
1160 306 922.9788818359375 194 201 217
1176 306 931.7859497070312 194 201 217
1177 306 932.7647094726562 196 203 219
1180 306 933.7435302734375 194 201 217
1181 306 934.722412109375 202 211 226
1182 306 935.7013549804688 196 205 220
1185 306 935.7013549804688 201 210 225
1186 306 936.6802978515625 202 211 226
1242 306 967.4425048828125 193 200 216
1243 306 968.4234619140625 206 214 227
1244 306 969.4044799804688 204 214 226
1247 306 970.385498046875 196 206 218
1248 306 971.3665771484375 198 208 220
1249 306 972.34765625 194 204 216
1395 306 1057.6033935546875 182 181 199
1396 306 1058.588623046875 187 188 206
1400 306 1060.559326171875 194 197 212
1401 306 1061.544677734375 190 193 208
1406 306 1064.5008544921875 199 209 221
1411 306 1066.4718017578125 203 211 224
1412 306 1067.457275390625 201 204 219
1567 306 1167.044189453125 198 204 220
1568 306 1168.032958984375 190 197 213
1569 306 1169.0218505859375 181 187 203
1730 306 1278.221435546875 191 208 224
1731 306 1279.212646484375 192 211 225
1732 306 1280.203857421875 191 210 225
1739 306 1284.1689453125 186 204 218
1894 306 1394.6759033203125 164 186 207
1895 306 1395.6690673828125 161 186 206
1896 306 1396.662109375 165 192 209
1897 306 1397.6551513671875 168 197 211
1898 306 1398.6483154296875 163 189 206
1903 306 1401.627685546875 157 175 197
705 307 736.6199951171875 82 85 92
706 307 737.5744018554688 96 97 102
845 307 782.6978759765625 189 196 214
962 307 829.2315673828125 197 204 220
963 307 830.201171875 195 202 218
966 307 831.1708374023438 188 197 212
1148 307 916.340576171875 195 201 217
1149 307 917.318359375 186 192 208
1159 307 922.2081909179688 187 193 209
1160 307 923.1863403320312 179 185 201
1176 307 931.9913940429688 202 209 225
1177 307 932.969970703125 199 209 221
1395 307 1057.7750244140625 199 200 218
1396 307 1058.7601318359375 199 202 219
1400 307 1060.73046875 203 209 223
1401 307 1061.715576171875 194 202 215
1550 307 1155.3306884765625 202 212 224
1552 307 1157.3076171875 192 204 216
1724 307 1274.3896484375 190 212 226
1725 307 1275.3807373046875 191 213 227
1726 307 1276.371826171875 190 209 224
1766 307 1303.8685302734375 190 203 222
1895 307 1395.786865234375 148 173 193
1896 307 1396.7799072265625 152 179 196
1897 307 1397.7728271484375 155 182 199
958 308 827.5385131835938 185 194 209
959 308 828.5076904296875 193 202 217
962 308 829.4769287109375 184 191 207
1142 308 913.6181030273438 195 202 218
1143 308 914.5955200195312 201 208 224
1147 308 915.5730590820312 195 202 218
1148 308 916.5505981445312 194 200 216
1149 308 917.5281982421875 177 183 199
1159 308 922.4169311523438 181 184 203
1160 308 923.3948364257812 179 182 201
1229 308 959.9901123046875 193 200 218
1230 308 960.9703369140625 208 217 232
1231 308 961.9506225585938 193 200 216
1394 308 1056.962646484375 204 210 224
1395 308 1057.947509765625 203 211 224
1396 308 1058.9324951171875 204 211 227
1400 308 1060.9024658203125 205 213 226
1544 308 1152.5177001953125 205 215 227
1545 308 1153.5059814453125 197 209 223
1546 308 1154.4942626953125 195 204 219
1550 308 1155.4825439453125 207 219 231
1551 308 1156.470947265625 198 208 220
1763 308 1301.0230712890625 180 202 216
1764 308 1302.0146484375 190 212 226
1765 308 1303.006103515625 192 214 228
1861 308 1372.0787353515625 186 203 223
1867 308 1375.0567626953125 167 188 209
1868 308 1376.0494384765625 177 202 222
1869 308 1377.0421142578125 172 199 216
1870 308 1378.0347900390625 170 197 214
948 309 822.9422607421875 191 200 215
1139 309 912.8526611328125 199 206 222
1143 309 914.8070678710938 196 203 219
1148 309 916.76171875 165 171 187
1149 309 917.7390747070312 159 165 181
1159 309 922.626708984375 196 199 218
1160 309 923.6043701171875 199 202 221
1161 309 924.5820922851562 185 188 207
1375 309 1046.305908203125 184 183 201
1538 309 1148.7183837890625 203 213 225
1539 309 1149.70654296875 204 214 226
1540 309 1150.694580078125 196 204 217
1544 309 1152.6707763671875 187 197 209
1545 309 1153.658935546875 182 192 204
1546 309 1154.6470947265625 181 188 204
1860 309 1371.20751953125 187 204 224
1861 309 1372.2000732421875 188 207 224
1866 309 1374.1851806640625 162 178 201
1867 309 1375.1778564453125 167 185 207
1868 309 1376.17041015625 163 188 208
1869 309 1377.1630859375 162 189 208
1870 309 1378.1556396484375 161 188 207
826 310 776.7741088867188 174 183 200
948 310 823.1919555664062 193 200 216
949 310 824.16015625 185 192 208
1134 310 910.1351318359375 196 205 220
1135 310 911.1119384765625 192 201 216
1139 310 913.0657348632812 179 185 201
1143 310 915.0196533203125 173 176 195
1159 310 922.8374633789062 200 205 224
1212 310 950.5919189453125 198 205 221
1214 310 952.55078125 182 188 204
1249 310 972.9321899414062 194 206 220
1299 310 999.833984375 180 181 201
1300 310 1000.816162109375 179 182 201
1369 310 1042.54541015625 179 180 200
1370 310 1043.529541015625 176 179 198
1374 310 1045.4979248046875 186 192 208
1375 310 1046.482177734375 198 204 220
1379 310 1047.4664306640625 199 205 219
1380 310 1048.4508056640625 201 208 224
1381 310 1049.43505859375 196 206 218
1532 310 1144.92138671875 203 211 224
1533 310 1145.9093017578125 198 208 218
1534 310 1146.8970947265625 197 207 217
1538 310 1148.8729248046875 191 198 214
1539 310 1149.86083984375 190 196 212
1540 310 1150.848876953125 188 187 205
1699 310 1256.962158203125 194 213 228
1700 310 1257.9527587890625 197 215 229
1849 310 1362.3978271484375 177 204 221
1850 310 1363.3902587890625 171 197 214
1851 310 1364.3826904296875 182 205 223
1852 310 1365.375 185 206 225
1853 310 1366.367431640625 183 204 221
1854 310 1367.35986328125 185 204 221
1859 310 1370.337158203125 179 196 216
1860 310 1371.32958984375 181 198 218
1861 310 1372.3221435546875 182 200 220
1862 310 1373.3145751953125 180 199 216
1868 310 1376.2921142578125 161 179 203
704 311 736.5684204101562 78 85 93
826 311 777.0488891601562 176 185 202
1123 311 904.4915771484375 196 204 217
1134 311 910.3499145507812 175 184 199
1135 311 911.3264770507812 182 191 206
1139 311 913.27978515625 175 178 195
1143 311 915.2332763671875 181 184 203
1148 311 917.18701171875 194 197 216
1208 311 949.8152465820312 205 208 227
1212 311 950.79443359375 206 215 230
1213 311 951.7736206054688 197 207 219
1214 311 952.7528686523438 190 196 212
1244 311 970.1881103515625 202 211 226
1363 311 1038.7877197265625 178 181 198
1364 311 1039.7716064453125 186 189 206
1369 311 1042.723388671875 192 195 212
1370 311 1043.707275390625 196 202 218
1374 311 1045.6754150390625 197 204 220
1375 311 1046.659423828125 203 210 226
1379 311 1047.6435546875 205 211 225
1380 311 1048.627685546875 204 212 225
1532 311 1145.0772705078125 192 200 211
1533 311 1146.0650634765625 187 195 206
1534 311 1147.052734375 180 188 201
1692 311 1253.138916015625 194 210 226
1698 311 1256.10986328125 193 215 229
1737 311 1282.5853271484375 200 216 232
1739 311 1284.5672607421875 188 210 224
1835 311 1353.591552734375 168 194 211
1841 311 1357.560302734375 186 212 229
1842 311 1358.552490234375 182 205 223
1850 311 1363.5137939453125 166 189 207
1851 311 1364.506103515625 172 193 212
1853 311 1366.49072265625 183 202 219
1859 311 1370.4600830078125 169 184 205
1860 311 1371.4525146484375 169 185 208
1861 311 1372.4449462890625 170 188 208
826 312 777.3248901367188 162 169 187
936 312 818.8577270507812 181 190 207
1118 312 902.7568969726562 210 217 233
1122 312 903.7327880859375 198 205 221
1123 312 904.7088012695312 194 202 215
1134 312 910.5657348632812 178 183 202
1135 312 911.5421142578125 177 182 201
1139 312 913.4949340820312 188 194 210
1143 312 915.447998046875 197 203 219
1144 312 916.424560546875 193 199 215
1202 312 946.1035766601562 190 196 212
1203 312 947.0823364257812 205 211 227
1204 312 948.0611572265625 201 208 224
1363 312 1038.96728515625 188 194 210
1364 312 1039.950927734375 201 210 225
1365 312 1040.9346923828125 194 203 218
1370 312 1043.885986328125 196 208 220
1374 312 1045.853759765625 197 207 219
1515 312 1133.384765625 207 215 228
1517 312 1135.359375 203 211 222
1684 312 1247.337158203125 192 210 224
1685 312 1248.3272705078125 193 212 226
1686 312 1249.3173828125 202 221 235
1687 312 1250.3076171875 196 215 229
1692 312 1253.278076171875 190 206 221
1693 312 1254.268310546875 192 208 223
1725 312 1275.7840576171875 194 213 228
1726 312 1276.77490234375 189 208 225
1828 312 1348.7564697265625 178 199 220
1833 312 1351.7325439453125 181 210 226
1834 312 1352.724609375 177 204 221
1835 312 1353.7166748046875 173 200 219
1841 312 1357.6851806640625 176 204 218
826 313 777.6021118164062 169 176 194
928 313 816.2119750976562 185 194 211
935 313 818.1454467773438 176 183 199
1114 313 901.0244140625 202 209 225
1118 313 902.9756469726562 188 195 211
1122 313 903.9513549804688 182 189 205
1123 313 904.9270629882812 174 181 197
1134 313 910.7826538085938 196 201 220
1135 313 911.7587280273438 194 199 218
1138 313 912.7349243164062 195 201 217
1139 313 913.7111206054688 201 207 223
1140 313 914.6873779296875 196 199 218
1143 313 915.6636962890625 201 208 224
1202 313 946.3091430664062 195 201 217
1203 313 947.2877197265625 205 212 228
1204 313 948.2662963867188 193 200 216
1230 313 961.7692260742188 201 208 224
1363 313 1039.147705078125 200 207 223
1364 313 1040.1312255859375 199 211 223
1365 313 1041.11474609375 192 204 216
1509 313 1130.5826416015625 202 208 222
1515 313 1133.5439453125 203 211 224
1516 313 1134.5311279296875 200 206 218
1824 313 1344.915283203125 170 192 213
1825 313 1345.9071044921875 173 195 216
1826 313 1346.8990478515625 182 208 225
1827 313 1347.8909912109375 185 211 228
1828 313 1348.8828125 180 203 221
1832 313 1350.86669921875 172 201 217
1109 314 898.3189697265625 192 197 216
1110 314 899.294189453125 198 205 221
1114 314 901.2446899414062 190 197 213
1118 314 903.1954345703125 176 182 198
1122 314 904.1708984375 181 188 204
1123 314 905.1464233398438 175 182 198
1134 314 911.0005493164062 203 212 227
1135 314 911.9764404296875 202 211 226
1186 314 937.712646484375 193 200 216
1349 314 1030.48046875 198 201 218
1350 314 1031.4635009765625 197 204 220
1503 314 1126.79541015625 206 212 226
1504 314 1127.7823486328125 212 218 232
1505 314 1128.769287109375 206 212 224
1509 314 1130.7431640625 202 210 223
1510 314 1131.7301025390625 194 202 215
1825 314 1346.0345458984375 177 198 219
1826 314 1347.0263671875 181 204 222
1827 314 1348.0181884765625 171 197 214
1828 314 1349.010009765625 176 199 217
1833 314 1351.985595703125 169 191 212
1834 314 1352.9774169921875 164 185 206
707 315 740.3384399414062 118 118 120
708 315 741.290771484375 135 137 136
709 315 742.2432250976562 134 135 137
807 315 771.4428100585938 160 169 184
1099 315 893.6671752929688 195 202 218
1109 315 898.541015625 183 188 207
1110 315 899.5159912109375 184 191 207
1114 315 901.4660034179688 177 184 200
1118 315 903.4163208007812 185 191 207
1122 315 904.3914794921875 197 204 220
1123 315 905.3667602539062 196 203 219
1348 315 1029.6815185546875 202 208 224
1349 315 1030.664306640625 204 211 227
1350 315 1031.647216796875 200 209 224
1503 315 1126.9573974609375 200 206 220
1504 315 1127.944091796875 191 197 211
1505 315 1128.930908203125 194 197 212
1661 315 1231.9273681640625 200 216 231
1662 315 1232.9168701171875 192 208 223
1804 315 1330.2969970703125 173 196 212
1805 315 1331.2884521484375 187 210 226
1806 315 1332.280029296875 185 208 224
1807 315 1333.271484375 185 208 224
1825 315 1346.1627197265625 166 182 205
1826 315 1347.1544189453125 173 191 213
1827 315 1348.1461181640625 162 183 202
705 316 738.7408447265625 79 84 88
706 316 739.6925048828125 100 101 105
707 316 740.644287109375 120 120 122
1098 316 892.9171142578125 197 204 220
1109 316 898.76416015625 174 179 198
1114 316 901.6884155273438 193 200 216
1118 316 903.63818359375 202 212 224
1119 316 904.6131591796875 193 203 215
1122 316 904.6131591796875 202 211 226
1123 316 905.5881958007812 201 210 225
1180 316 935.2005004882812 196 203 219
1181 316 936.1778564453125 208 215 231
1182 316 937.1552734375 203 210 226
1330 316 1019.0593872070312 174 177 196
1331 316 1020.0416870117188 182 185 204
1488 316 1117.255615234375 205 215 227
1489 316 1118.241943359375 196 206 218
1661 316 1232.072265625 193 209 224
1792 316 1323.48779296875 180 206 223
1793 316 1324.4791259765625 180 207 224
1798 316 1327.4532470703125 187 210 228
1799 316 1328.444580078125 182 208 223
1800 316 1329.4359130859375 179 206 223
1804 316 1330.4273681640625 177 203 218
1805 316 1331.4188232421875 190 216 231
1806 316 1332.4102783203125 181 207 222
1807 316 1333.401611328125 174 200 215
706 317 740.0 100 101 105
906 317 807.59521484375 178 187 202
1098 317 893.1427612304688 176 183 199
1109 317 898.9883422851562 198 205 221
1110 317 899.9627685546875 197 204 220
1114 317 901.911865234375 201 208 224
1176 317 933.4586181640625 191 198 214
1324 317 1016.3011474609375 186 187 205
1325 317 1017.2831420898438 178 179 197
1329 317 1018.2651977539062 196 199 216
1330 317 1019.2472534179688 195 201 217
1331 317 1020.2293701171875 193 196 215
1481 317 1112.489990234375 207 213 227
1482 317 1113.47607421875 206 214 225
1487 317 1116.4344482421875 203 211 224
1488 317 1117.420654296875 189 197 210
1643 317 1219.35888671875 193 209 224
1686 317 1249.7412109375 193 205 221
1687 317 1250.73095703125 197 209 225
1785 317 1318.6636962890625 183 198 217
1786 317 1319.6549072265625 196 211 230
1791 317 1322.62841796875 186 209 225
1792 317 1323.61962890625 189 217 231
1793 317 1324.61083984375 177 205 219
1797 317 1326.5933837890625 184 202 222
1798 317 1327.5845947265625 179 202 220
1799 317 1328.575927734375 182 208 223
1800 317 1329.5672607421875 176 203 220
1807 317 1333.532470703125 165 188 206
705 318 739.3578491210938 80 88 90
706 318 740.3087158203125 92 96 99
708 318 741.5962524414062 120 122 121
1082 318 884.6072387695312 201 208 224
1083 318 885.5806274414062 197 204 220
1098 318 893.3694458007812 180 186 202
1109 318 899.2135620117188 197 206 221
1319 318 1013.5452880859375 183 188 207
1320 318 1014.5269775390625 180 185 204
1324 318 1016.4905395507812 195 202 218
1325 318 1017.4723510742188 193 200 216
1329 318 1018.4542236328125 203 213 225
1330 318 1019.4360961914062 203 213 225
1481 318 1112.65673828125 206 212 226
1482 318 1113.6427001953125 199 205 217
1636 318 1215.55126953125 192 210 224
1642 318 1218.5179443359375 194 212 224
1643 318 1219.5068359375 190 208 220
1783 318 1316.814697265625 180 201 218
1784 318 1317.8057861328125 188 207 224
1785 318 1318.7967529296875 191 210 227
1786 318 1319.787841796875 193 212 229
1791 318 1322.7611083984375 181 202 219
1792 318 1323.752197265625 182 205 221
1793 318 1324.743408203125 179 202 218
1797 318 1326.7257080078125 176 188 210
1798 318 1327.716796875 176 193 213
1799 318 1328.7080078125 171 189 209
1800 318 1329.69921875 157 175 197
705 319 739.0487060546875 78 86 88
706 319 740.0 95 100 103
707 319 740.951416015625 118 122 125
1075 319 882.8912963867188 202 209 225
1078 319 883.8642578125 198 205 221
1079 319 884.8372802734375 197 204 220
1082 319 884.8372802734375 192 199 215
1083 319 885.8103637695312 184 191 207
1098 319 893.5972290039062 201 207 223
1099 319 894.5708618164062 194 201 217
1159 319 924.1239013671875 206 209 228
1160 319 925.0999755859375 202 209 225
1161 319 926.0761108398438 195 202 218
1243 319 970.2108154296875 178 179 197
1319 319 1013.7361450195312 196 201 220
1320 319 1014.7177124023438 202 209 227
1323 319 1015.6992797851562 203 206 225
1324 319 1016.6808471679688 206 213 229
1325 319 1017.6625366210938 205 214 229
1635 319 1214.7119140625 199 215 228
1783 319 1316.94873046875 182 203 220
1784 319 1317.939697265625 187 205 225
1785 319 1318.9306640625 185 204 221
1786 319 1319.921630859375 180 199 216
1791 319 1322.89453125 171 190 207
1792 319 1323.8856201171875 178 196 216
705 320 739.0487060546875 77 85 88
707 320 740.951416015625 116 117 121
709 320 742.8546142578125 141 145 146
885 320 799.7224731445312 186 195 210
1074 320 882.1502075195312 195 201 217
1075 320 883.1228637695312 190 196 212
1078 320 884.0955810546875 177 182 201
1079 320 885.068359375 172 177 196
1082 320 885.068359375 172 178 194
1083 320 886.0411987304688 168 174 190
1098 320 893.8260498046875 199 208 223
1149 320 919.4634399414062 184 189 208
1186 320 938.556884765625 201 207 223
1318 320 1012.9467163085938 194 201 217
1319 320 1013.927978515625 201 210 225
1320 320 1014.9093627929688 196 205 220
1460 320 1099.196533203125 200 212 226
1461 320 1100.1817626953125 195 207 221
1622 320 1205.965576171875 201 215 228
1623 320 1206.9539794921875 201 215 228
1661 320 1232.3643798828125 196 208 224
1764 320 1303.21337890625 187 208 225
1765 320 1304.2039794921875 188 209 226
1766 320 1305.194580078125 188 209 226
706 321 740.3087158203125 96 100 103
707 321 741.259765625 112 113 117
1074 321 882.3831176757812 179 185 201
1075 321 883.3555297851562 176 182 198
1078 321 884.3280029296875 176 181 200
1079 321 885.300537109375 173 178 197
1082 321 885.300537109375 194 200 216
1083 321 886.2730712890625 187 193 209
1148 321 918.7083129882812 201 207 223
1300 321 1002.3497314453125 188 191 210
1301 321 1003.3304443359375 184 187 206
1454 321 1096.412841796875 208 216 229
1455 321 1097.3978271484375 202 212 222
1459 321 1098.3829345703125 195 205 217
1460 321 1099.3680419921875 192 204 216
1461 321 1100.3531494140625 185 197 209
1661 321 1232.51171875 200 216 231
1764 321 1303.350341796875 189 210 227
1765 321 1304.3408203125 192 213 230
1766 321 1305.3314208984375 180 199 216
1055 322 873.8707275390625 198 205 221
1058 322 873.8707275390625 197 204 220
1059 322 874.84228515625 204 211 227
1060 322 875.8139038085938 192 199 217
1073 322 881.6450805664062 181 186 206
1074 322 882.6171264648438 186 193 211
1075 322 883.5892944335938 179 186 202
1078 322 884.5614624023438 195 202 218
1079 322 885.5337524414062 188 195 211
1082 322 885.5337524414062 200 207 223
1083 322 886.5060424804688 198 205 221
1139 322 915.030029296875 198 207 222
1140 322 916.0048828125 188 195 211
1143 322 916.9797973632812 198 207 222
1144 322 917.9547729492188 198 207 222
1290 322 997.6437377929688 182 183 203
1294 322 999.6044311523438 188 189 207
1295 322 1000.5848388671875 193 194 212
1296 322 1001.5652465820312 193 194 212
1299 322 1001.5652465820312 196 199 216
1300 322 1002.5457763671875 194 203 218
1301 322 1003.5263061523438 195 204 219
1447 322 1091.66162109375 196 202 218
1448 322 1092.6463623046875 196 208 220
1449 322 1093.631103515625 198 210 224
1454 322 1096.5855712890625 198 204 218
1455 322 1097.570556640625 194 200 214
1605 322 1194.4140625 204 216 228
1764 322 1303.488037109375 177 194 212
1765 322 1304.4783935546875 175 190 209
1912 322 1409.03515625 176 204 216
1913 322 1410.02734375 176 206 217
1054 323 873.1369018554688 194 201 219
1055 323 874.1080932617188 191 198 216
1059 323 875.0794067382812 182 189 207
1074 323 882.8521728515625 201 208 224
1075 323 883.8240966796875 198 205 221
1078 323 884.7960205078125 199 206 222
1079 323 885.7680053710938 200 210 222
1135 323 913.304443359375 202 211 226
1136 323 914.2789306640625 190 197 215
1139 323 915.2535400390625 200 209 224
1289 323 996.861572265625 183 184 204
1290 323 997.8416748046875 199 202 221
1294 323 999.802001953125 203 206 223
1295 323 1000.7821655273438 205 211 227
1296 323 1001.762451171875 210 213 230
1447 323 1091.8360595703125 190 196 210
1448 323 1092.8206787109375 186 196 208
1449 323 1093.8052978515625 182 192 204
1598 323 1190.6182861328125 208 217 234
1600 323 1192.5938720703125 203 215 229
1604 323 1193.58154296875 200 212 226
1605 323 1194.5693359375 200 214 225
1642 323 1218.9671630859375 200 213 229
1733 323 1282.833251953125 192 205 224
1734 323 1283.8232421875 191 202 222
1738 323 1284.813232421875 189 206 222
1739 323 1285.80322265625 187 206 221
1740 323 1286.7933349609375 190 207 225
1741 323 1287.7833251953125 185 202 220
1742 323 1288.7734375 182 199 217
1750 323 1294.7142333984375 186 202 218
1896 323 1398.2481689453125 162 189 210
1904 323 1404.2000732421875 172 204 219
1905 323 1405.192138671875 168 201 216
1906 323 1406.1842041015625 164 198 210
707 324 741.5692749023438 112 113 115
708 324 742.52001953125 131 131 133
709 324 743.4708862304688 134 135 137
865 324 793.1229248046875 181 190 207
1049 324 870.4630737304688 180 187 203
1055 324 874.3466186523438 176 181 201
1059 324 875.317626953125 179 184 204
1123 324 906.7110595703125 188 195 211
1135 324 913.5294189453125 200 209 224
1159 324 925.0021362304688 194 203 218
1282 324 993.1414794921875 198 201 216
1288 324 996.080810546875 193 199 215
1290 324 998.0405883789062 198 205 221
1593 324 1187.812255859375 201 217 230
1635 324 1215.1650390625 199 213 226
1726 324 1278.025390625 191 210 225
1731 324 1280.994873046875 195 212 228
1732 324 1281.9847412109375 193 210 226
1733 324 1282.974609375 196 213 229
1738 324 1284.9544677734375 188 207 222
1739 324 1285.9444580078125 184 203 218
1740 324 1286.934326171875 182 199 215
707 325 741.8800659179688 107 111 112
708 325 742.8303833007812 126 126 126
1039 325 865.8521728515625 189 198 215
1040 325 866.8223876953125 198 207 222
1049 325 870.7037353515625 171 178 194
1050 325 871.6742553710938 180 185 204
1059 325 875.5569458007812 191 196 216
1060 325 876.52783203125 180 185 205
1122 325 905.9652099609375 204 213 228
1123 325 906.9387817382812 202 211 226
1203 325 948.966796875 179 182 201
1271 325 986.4866943359375 184 185 203
1282 325 993.3423461914062 194 202 215
1426 325 1078.410888671875 204 210 226
1427 325 1079.394775390625 202 209 225
1428 325 1080.378662109375 203 209 223
1585 325 1182.046142578125 196 205 220
1586 325 1183.033447265625 199 211 223
1587 325 1184.020751953125 203 215 227
1624 325 1208.400634765625 198 210 226
1724 325 1276.1888427734375 187 204 220
1725 325 1277.1785888671875 193 212 226
1726 325 1278.168212890625 191 210 224
1730 325 1280.147705078125 192 209 225
1731 325 1281.1373291015625 193 209 225
1732 325 1282.127197265625 187 203 219
1733 325 1283.116943359375 189 205 221
1738 325 1285.096435546875 179 196 212
706 326 741.2421875 89 94 97
1039 326 866.0952758789062 182 189 207
1040 326 867.065185546875 179 186 204
1049 326 870.9454345703125 175 180 199
1054 326 873.8563842773438 197 204 220
1059 326 875.79736328125 203 210 228
1060 326 876.7679443359375 189 196 214
1114 326 903.2745971679688 199 208 223
1115 326 904.2477416992188 200 209 224
1118 326 905.220947265625 198 210 224
1119 326 906.1942138671875 204 216 230
1271 326 986.68994140625 200 203 220
1272 326 987.6689453125 201 208 224
1273 326 988.6480712890625 191 200 215
1426 326 1078.59033203125 198 201 218
1427 326 1079.573974609375 202 205 222
1724 326 1276.3326416015625 196 209 225
1725 326 1277.3221435546875 194 208 221
1726 326 1278.311767578125 198 212 225
1730 326 1280.291015625 184 195 215
1731 326 1281.2806396484375 187 195 216
846 327 787.2445678710938 181 188 206
1025 327 859.553955078125 196 205 220
1026 327 860.5230712890625 186 193 211
1040 327 867.30908203125 173 180 198
1049 327 871.1882934570312 183 190 208
1055 327 875.0685424804688 199 206 222
1109 327 900.5870361328125 193 200 218
1110 327 901.5597534179688 201 210 225
1139 327 915.9301147460938 203 208 227
1258 327 979.0648803710938 182 185 200
1259 327 980.0433959960938 181 184 199
1272 327 987.8729858398438 198 207 222
1412 327 1069.9200439453125 200 208 221
1413 327 1070.9033203125 198 206 219
1414 327 1071.8865966796875 193 199 215
1422 327 1077.787109375 188 194 208
1568 327 1170.5234375 203 215 229
1569 327 1171.5101318359375 204 218 231
1606 327 1195.8699951171875 200 206 222
1701 327 1260.648193359375 191 207 223
1868 327 1377.939453125 179 202 220
1021 328 858.8323364257812 198 207 222
1025 328 859.8011474609375 191 198 214
1026 328 860.77001953125 184 191 209
1039 328 866.5846557617188 187 194 212
1040 328 867.5540161132812 187 194 210
1098 328 894.9860229492188 195 204 219
1099 328 895.9581298828125 187 196 211
1253 328 977.315185546875 195 196 214
1254 328 978.2933959960938 190 193 210
1258 328 979.2716674804688 200 207 223
1259 328 980.2499389648438 188 195 211
1406 328 1067.1536865234375 200 210 222
1407 328 1068.13671875 198 208 220
1412 328 1070.102783203125 190 196 212
1413 328 1071.0859375 181 184 201
1414 328 1072.0689697265625 190 191 209
1599 328 1192.0780029296875 194 210 223
1693 328 1255.850341796875 193 212 227
1698 328 1257.8282470703125 194 213 228
1699 328 1258.8172607421875 196 215 230
1700 328 1259.8062744140625 193 212 227
1701 328 1260.79541015625 191 210 224
1861 328 1374.106201171875 181 202 219
1862 328 1375.097412109375 183 206 222
1913 328 1410.66015625 182 210 222
1914 328 1411.65185546875 176 202 217
1016 329 856.17578125 187 194 212
1017 329 857.1441040039062 198 207 224
1018 329 858.1124877929688 195 202 218
1021 329 859.0809326171875 184 193 208
1025 329 860.0494384765625 173 180 196
1026 329 861.0180053710938 171 178 196
1040 329 867.8001098632812 197 206 221
1098 329 895.22119140625 201 210 225
1099 329 896.1930541992188 198 207 222
1244 329 972.634033203125 180 183 202
1245 329 973.61181640625 184 187 206
1248 329 974.5896606445312 194 197 216
1249 329 975.5675048828125 196 199 216
1252 329 976.5454711914062 197 200 217
1253 329 977.5233764648438 206 209 226
1254 329 978.5014038085938 203 206 223
1257 329 978.5014038085938 198 204 220
1258 329 979.4794311523438 203 212 227
1400 329 1063.40673828125 202 212 224
1401 329 1064.3895263671875 204 214 226
1406 329 1067.3377685546875 192 200 213
1407 329 1068.3206787109375 177 185 198
1593 329 1188.2882080078125 196 203 221
1686 329 1251.0548095703125 190 209 224
1687 329 1252.0435791015625 188 207 222
1688 329 1253.0323486328125 189 208 223
1692 329 1255.010009765625 198 217 231
1693 329 1255.998779296875 199 218 232
1694 329 1256.9876708984375 196 215 229
1698 329 1257.9765625 190 207 223
1699 329 1258.9654541015625 189 208 223
1700 329 1259.954345703125 186 203 219
1701 329 1260.9432373046875 179 196 212
1906 329 1406.56494140625 179 207 221
1907 329 1407.81396484375 174 200 215
1017 330 857.394287109375 175 182 200
1025 330 860.2987670898438 183 190 208
1026 330 861.26708984375 180 187 205
1083 330 887.6868896484375 186 193 209
1242 330 970.8892822265625 177 182 201
1243 330 971.8667602539062 187 192 211
1244 330 972.8442993164062 192 201 218
1245 330 973.8218383789062 197 206 221
1248 330 974.7994384765625 203 210 226
1249 330 975.777099609375 203 211 224
1250 330 976.7548217773438 195 201 217
1253 330 977.7326049804688 204 212 225
1254 330 978.7103881835938 201 209 222
1395 330 1060.6451416015625 205 211 225
1396 330 1061.6275634765625 201 207 221
1546 330 1157.2078857421875 207 215 228
1550 330 1158.19384765625 203 211 224
1552 330 1160.1658935546875 194 201 217
1586 330 1183.5137939453125 201 210 225
1684 330 1249.2274169921875 179 198 212
1685 330 1250.2159423828125 189 211 224
1686 330 1251.20458984375 191 213 226
1687 330 1252.1932373046875 190 212 226
1691 330 1254.170654296875 191 210 224
1692 330 1255.1593017578125 188 207 222
1693 330 1256.1480712890625 188 205 221
1694 330 1257.1368408203125 179 192 209
1698 330 1258.1256103515625 178 189 207
1700 330 1260.1031494140625 169 180 200
1898 330 1401.003173828125 171 207 223
716 331 746.6170654296875 149 156 164
1002 331 849.9058837890625 196 205 220
1003 331 850.8731079101562 194 203 218
1017 331 857.6456298828125 182 189 207
1021 331 859.581298828125 192 201 218
1025 331 860.5492553710938 194 201 219
1026 331 861.5172729492188 182 189 207
1082 331 886.9554443359375 197 204 220
1083 331 887.9262084960938 197 204 220
1114 331 904.2040405273438 200 209 224
1231 331 965.2383422851562 178 181 200
1243 331 972.0781860351562 192 199 217
1244 331 973.0554809570312 199 211 225
1245 331 974.0328369140625 201 213 227
1539 331 1152.446044921875 206 212 226
1540 331 1153.431884765625 201 209 222
1684 331 1249.3782958984375 181 200 215
1685 331 1250.36669921875 184 203 217
1686 331 1251.355224609375 181 200 214
1687 331 1252.34375 170 189 204
1692 331 1255.3095703125 172 189 205
1834 331 1354.6915283203125 179 206 223
706 332 742.1866455078125 103 103 105
707 332 743.13525390625 110 108 109
708 332 744.083984375 128 127 125
709 332 745.0328979492188 136 136 136
1003 332 851.1275024414062 183 190 206
1016 332 856.9305419921875 183 192 209
1017 332 857.8980102539062 192 201 218
1018 332 858.8655395507812 197 204 220
1021 332 859.8331298828125 202 211 226
1074 332 884.2850341796875 199 206 222
1075 332 885.2553100585938 197 204 220
1078 332 886.2257080078125 198 207 224
1079 332 887.1961669921875 199 208 223
1225 332 962.522216796875 183 186 205
1229 332 963.4988403320312 195 198 217
1230 332 964.4755249023438 199 204 223
1231 332 965.4522094726562 197 204 220
1375 332 1049.23779296875 200 210 222
1376 332 1050.219482421875 201 211 223
1379 332 1050.219482421875 202 209 225
1380 332 1051.201171875 204 213 228
1381 332 1052.1829833984375 199 207 220
1532 332 1147.687255859375 201 211 223
1533 332 1148.6727294921875 201 213 225
1534 332 1149.658203125 204 218 229
1535 332 1150.6436767578125 197 209 221
1539 332 1152.6148681640625 202 208 222
1569 332 1172.0003662109375 197 209 221
1570 332 1172.98681640625 198 207 222
1661 332 1233.7183837890625 192 208 223
707 333 743.4520874023438 103 102 100
708 333 744.4004516601562 118 117 113
709 333 745.3489379882812 122 122 120
710 333 746.2975463867188 143 144 148
993 333 846.5506591796875 180 189 204
1003 333 851.3829956054688 173 180 196
1074 333 884.527587890625 197 206 221
1225 333 962.73779296875 202 205 224
1230 333 964.6906127929688 199 206 222
1231 333 965.6671142578125 201 208 224
1369 333 1045.503173828125 208 211 228
1370 333 1046.484619140625 206 214 227
1374 333 1048.4473876953125 200 208 221
1375 333 1049.4288330078125 198 208 220
1376 333 1050.410400390625 188 196 209
1660 333 1232.8848876953125 199 215 230
1661 333 1233.872802734375 187 207 218
1662 333 1234.8607177734375 183 203 214
1871 333 1381.5777587890625 166 198 213
1914 333 1412.0396728515625 161 182 201
706 334 742.8223266601562 84 84 82
707 334 743.7701416015625 99 100 95
708 334 744.7180786132812 121 120 116
993 334 846.8087158203125 174 181 199
1003 334 851.6395874023438 185 194 209
1059 334 877.015380859375 202 209 225
1214 334 956.1223754882812 180 186 202
1364 334 1042.7525634765625 199 209 221
1365 334 1043.733642578125 204 212 225
1369 334 1045.6959228515625 198 204 220
1370 334 1046.6771240234375 193 199 213
1371 334 1047.6583251953125 186 192 206
1516 334 1137.1934814453125 200 214 225
1517 334 1138.1783447265625 202 214 226
1644 334 1222.175537109375 191 205 218
1645 334 1223.1630859375 193 206 222
1660 334 1233.0401611328125 193 205 221
1661 334 1234.0279541015625 190 203 219
1662 334 1235.0157470703125 183 197 210
1806 334 1334.3106689453125 186 209 227
1807 334 1335.3006591796875 186 212 229
1808 334 1336.290771484375 178 201 219
1862 334 1375.7681884765625 177 203 220
1904 334 1405.23095703125 164 189 209
1905 334 1406.2222900390625 164 189 209
1906 334 1407.2135009765625 165 192 209
1911 334 1409.1961669921875 172 193 212
1912 334 1410.1876220703125 181 202 219
1913 334 1411.178955078125 183 206 222
1914 334 1412.1702880859375 175 203 217
1915 334 1413.1617431640625 172 200 214
706 335 743.1419677734375 98 100 97
707 335 744.08935546875 108 108 106
981 335 842.240478515625 192 199 215
1003 335 851.8972778320312 193 202 217
1059 335 877.26220703125 202 209 225
1060 335 878.231201171875 194 201 217
1203 335 950.4888305664062 185 188 207
1209 335 954.390380859375 192 199 215
1214 335 956.3414916992188 187 194 210
1362 335 1040.985107421875 188 196 209
1363 335 1041.9659423828125 188 194 208
1365 335 1043.927734375 194 202 215
1510 335 1134.4130859375 209 217 230
1511 335 1135.397705078125 203 213 225
1546 335 1157.7119140625 200 203 222
1550 335 1158.697509765625 202 208 224
1551 335 1159.68310546875 205 213 226
1552 335 1160.6688232421875 203 213 225
1636 335 1217.39599609375 195 207 223
1642 335 1220.358154296875 196 214 226
1643 335 1221.3455810546875 195 213 223
1644 335 1222.3330078125 193 209 222
1896 335 1399.4158935546875 161 183 206
1897 335 1400.4071044921875 167 192 214
1898 335 1401.398193359375 167 196 214
1899 335 1402.389404296875 162 193 211
1904 335 1405.3629150390625 169 200 218
1905 335 1406.3541259765625 169 202 217
1906 335 1407.3453369140625 176 209 224
1907 335 1408.3365478515625 168 201 216
1911 335 1409.327880859375 179 202 220
1912 335 1410.319091796875 178 201 217
1913 335 1411.3104248046875 179 202 216
1915 335 1413.29296875 160 189 203
970 336 836.7138061523438 196 203 219
971 336 837.6783447265625 193 200 216
981 336 842.502197265625 173 180 196
985 336 844.432373046875 172 179 197
993 336 847.328125 187 194 210
1050 336 873.6361083984375 180 189 204
1203 336 950.7102661132812 194 199 218
1204 336 951.6853637695312 199 206 222
1205 336 952.6604614257812 191 198 214
1209 336 954.6109008789062 194 206 218
1349 336 1033.3367919921875 208 218 230
1350 336 1034.317138671875 203 213 225
1351 336 1035.2974853515625 198 208 220
1504 336 1130.6502685546875 205 215 227
1505 336 1131.6346435546875 206 216 228
1539 336 1152.9549560546875 196 204 217
1540 336 1153.940185546875 199 211 225
1629 336 1212.6190185546875 194 210 225
1630 336 1213.606201171875 199 215 230
1631 336 1214.5933837890625 199 212 228
1635 336 1216.5677490234375 198 212 225
1636 336 1217.554931640625 198 214 227
1637 336 1218.5421142578125 194 210 223
1642 336 1220.5167236328125 195 211 224
1643 336 1221.5040283203125 184 198 211
1644 336 1222.4913330078125 184 191 209
1787 336 1322.71728515625 184 210 225
1835 336 1356.2337646484375 182 211 227
1836 336 1357.2239990234375 180 207 224
1843 336 1362.1754150390625 173 204 222
1896 336 1399.5491943359375 162 187 207
1897 336 1400.540283203125 171 198 217
1898 336 1401.53125 178 210 225
1899 336 1402.5223388671875 176 210 222
1906 336 1407.4779052734375 167 203 217
1907 336 1408.468994140625 160 192 207
967 337 836.978515625 193 202 217
981 337 842.7650756835938 184 191 207
985 337 844.6946411132812 186 193 211
1041 337 870.0143432617188 189 196 214
1075 337 886.2307739257812 200 209 224
1123 337 908.798095703125 172 179 195
1203 337 950.9326782226562 200 205 224
1204 337 951.9075317382812 202 209 225
1205 337 952.8824462890625 195 203 216
1349 337 1033.53466796875 193 203 215
1350 337 1034.514892578125 189 197 210
1495 337 1123.937744140625 196 202 216
1496 337 1124.9217529296875 198 204 220
1533 337 1149.185791015625 200 203 218
1534 337 1150.1708984375 206 212 228
1535 337 1151.1558837890625 202 208 224
1623 337 1208.8316650390625 200 212 226
1624 337 1209.818603515625 202 215 231
1625 337 1210.8055419921875 201 217 232
1629 337 1212.7794189453125 198 216 228
1630 337 1213.7664794921875 198 214 227
1631 337 1214.75341796875 186 202 215
1636 337 1217.7147216796875 195 207 223
1637 337 1218.7017822265625 181 193 207
1829 337 1352.4130859375 177 214 230
1899 337 1402.656005859375 168 202 214
959 338 833.3894653320312 196 203 219
960 338 834.35302734375 197 204 220
963 338 835.3167114257812 189 196 212
967 338 837.2442626953125 180 187 205
981 338 843.029052734375 194 203 218
1040 338 869.2991333007812 197 206 221
1185 338 940.438720703125 170 176 192
1186 338 941.4127807617188 192 199 215
1187 338 942.3868408203125 186 195 210
1488 338 1120.1807861328125 213 223 235
1489 338 1121.16455078125 198 208 220
1622 338 1208.006591796875 196 210 221
1623 338 1208.993408203125 200 214 225
1624 338 1209.980224609375 195 211 224
1625 338 1210.9669189453125 185 198 214
1629 338 1212.940673828125 194 206 220
1630 338 1213.927490234375 183 192 209
1631 338 1214.9144287109375 183 190 208
1869 338 1380.003662109375 176 194 218
1870 338 1380.9942626953125 173 194 215
778 339 766.89306640625 167 175 188
967 339 837.5111694335938 172 179 197
970 339 837.5111694335938 179 188 205
971 339 838.4747924804688 180 189 206
1176 339 936.7710571289062 167 170 189
1177 339 937.74462890625 183 186 205
1178 339 938.71826171875 183 189 205
1181 339 939.6919555664062 179 184 203
1182 339 940.6657104492188 185 190 209
1186 339 941.6395263671875 200 210 222
1187 339 942.6134033203125 199 209 221
1329 339 1021.1997680664062 202 211 226
1330 339 1022.1790161132812 195 209 220
1331 339 1023.1583251953125 188 200 212
1482 339 1116.4263916015625 202 212 224
1516 339 1137.717041015625 206 207 225
1517 339 1138.701416015625 209 210 228
1518 339 1139.6859130859375 208 209 227
1605 339 1196.3314208984375 201 210 225
1606 339 1197.31787109375 207 214 232
1607 339 1198.30419921875 200 209 226
1622 339 1208.1693115234375 186 198 210
1623 339 1209.1558837890625 186 198 210
1624 339 1210.142578125 178 190 204
1764 339 1305.3466796875 184 203 220
1765 339 1306.335693359375 193 214 231
1862 339 1376.1790771484375 171 198 217
1863 339 1377.1695556640625 168 197 215
1869 339 1380.1409912109375 161 179 203
1870 339 1381.1314697265625 172 193 214
1871 339 1382.1219482421875 168 189 210
949 340 829.1134033203125 194 203 218
950 340 830.075927734375 193 200 216
967 340 837.7792358398438 195 202 218
970 340 837.7792358398438 197 206 221
