ply
format ascii 1.0
element vertex 1287
property float x
property float y
property float z
property float red
property float green
property float blue
end_header
1822 79 1330.0184326171875 170 190 214
723 80 707.774658203125 68 92 94
724 80 708.7693481445312 71 95 95
727 80 709.7640380859375 102 123 128
767 80 722.3032836914062 129 140 158
796 80 731.9815673828125 140 153 170
836 80 747.575439453125 143 156 173
865 80 759.2957153320312 143 156 175
940 80 790.7117309570312 160 171 189
1051 80 842.9976196289062 162 173 195
1052 80 843.9964599609375 154 166 188
1090 80 862.837158203125 169 184 205
1092 80 864.8352661132812 169 182 201
1137 80 888.650634765625 155 166 188
1140 80 888.650634765625 176 187 209
1141 80 889.64990234375 173 184 206
1142 80 890.6492309570312 161 173 197
1175 80 909.5284423828125 169 180 202
1176 80 910.5278930664062 174 185 207
1178 80 909.5284423828125 163 175 197
1179 80 910.5278930664062 184 196 218
1180 80 911.5272827148438 181 193 215
1214 80 931.4209594726562 169 180 202
1218 80 933.4200439453125 166 177 199
1223 80 935.4191284179688 177 188 210
1271 80 964.2987060546875 169 180 202
1276 80 967.2977905273438 172 183 205
1283 80 971.2965698242188 171 179 202
1313 80 989.222900390625 175 181 207
1314 80 990.2227172851562 171 179 202
1315 80 991.2224731445312 169 177 200
1318 80 992.2222290039062 185 193 216
1319 80 993.2220458984375 194 202 225
1320 80 994.2218017578125 171 179 202
1323 80 994.2218017578125 193 201 224
1324 80 995.2215576171875 190 201 219
1420 80 1055.0928955078125 169 170 198
1421 80 1056.0927734375 172 176 201
1422 80 1057.0926513671875 168 172 199
1596 80 1171.0037841796875 175 181 207
1597 80 1172.0037841796875 166 173 199
1598 80 1173.0037841796875 174 180 206
1613 80 1183.0037841796875 179 185 211
1653 80 1211.0 168 183 206
1738 80 1270.0035400390625 166 180 207
1739 80 1271.0035400390625 162 176 203
1745 80 1275.0035400390625 161 179 203
1752 80 1279.0035400390625 174 195 216
1753 80 1280.0035400390625 174 200 217
1754 80 1281.0035400390625 168 197 213
1755 80 1282.0035400390625 157 186 202
1813 80 1323.0135498046875 154 178 202
1814 80 1324.0135498046875 174 196 219
1815 80 1325.0135498046875 177 199 220
1816 80 1326.0135498046875 165 188 206
1899 80 1385.0361328125 150 164 193
1900 80 1386.0361328125 152 168 194
1901 80 1387.0360107421875 147 164 190
1902 80 1388.0360107421875 156 172 198
714 81 705.8895263671875 42 62 69
716 81 707.8785400390625 48 65 73
718 81 707.8785400390625 56 75 82
723 81 707.8785400390625 91 115 117
724 81 708.873046875 96 117 118
727 81 709.8676147460938 108 123 130
865 81 759.3740844726562 157 170 187
902 81 775.0258178710938 138 151 168
1047 81 842.048095703125 165 176 198
1050 81 842.048095703125 166 177 199
1051 81 843.046875 166 177 199
1052 81 844.0455932617188 175 187 209
1090 81 862.8817749023438 161 176 197
1091 81 863.8807983398438 174 187 206
1136 81 887.6902465820312 176 187 209
1137 81 888.6895141601562 166 177 199
1140 81 888.6895141601562 177 188 210
1141 81 889.688720703125 178 189 211
1142 81 890.6879272460938 171 183 207
1171 81 907.5643310546875 169 180 202
1174 81 908.563720703125 177 187 212
1175 81 909.5631103515625 178 189 211
1176 81 910.5624389648438 173 184 206
1178 81 909.5631103515625 169 181 203
1179 81 910.5624389648438 181 193 215
1180 81 911.5618286132812 181 193 215
1209 81 928.4530029296875 168 175 201
1214 81 931.4515380859375 184 195 217
1215 81 932.4510498046875 187 198 220
1219 81 934.4501342773438 181 192 214
1275 81 966.3234252929688 187 198 220
1276 81 967.3231201171875 179 192 211
1312 81 988.2449340820312 171 177 203
1313 81 989.2446899414062 187 193 217
1314 81 990.244384765625 188 196 219
1315 81 991.244140625 184 192 215
1318 81 992.243896484375 184 195 215
1319 81 993.24365234375 187 198 218
1420 81 1055.106689453125 174 178 205
1590 81 1168.0068359375 167 174 200
1591 81 1169.0068359375 179 185 211
1595 81 1170.0068359375 179 185 211
1596 81 1171.0068359375 182 192 217
1597 81 1172.0068359375 186 198 220
1598 81 1173.0068359375 184 192 215
1650 81 1208.0003662109375 171 186 209
1651 81 1209.0003662109375 179 196 216
1652 81 1210.0003662109375 178 196 216
1745 81 1275.0015869140625 168 186 208
1746 81 1276.0015869140625 167 192 212
1747 81 1277.0015869140625 168 195 212
1792 81 1307.009521484375 155 169 198
1793 81 1308.009521484375 160 176 202
1794 81 1309.009521484375 164 180 206
1795 81 1310.009521484375 161 177 203
1840 81 1343.0181884765625 161 183 207
1893 81 1382.029296875 157 174 202
1898 81 1384.029296875 150 165 194
1899 81 1385.029296875 157 174 202
1900 81 1386.0291748046875 160 177 203
1902 81 1388.0291748046875 163 181 205
714 82 705.9950561523438 64 83 89
717 82 706.9893798828125 80 98 102
718 82 707.9837646484375 76 95 101
723 82 707.9837646484375 109 127 131
1047 82 842.0985717773438 173 184 206
1050 82 842.0985717773438 164 177 196
1051 82 843.0972900390625 170 183 202
1052 82 844.095947265625 169 182 201
1132 82 885.7318725585938 167 179 201
1133 82 886.7310791015625 159 171 193
1136 82 887.730224609375 182 195 214
1137 82 888.7294311523438 173 186 205
1140 82 888.7294311523438 179 190 212
1141 82 889.7286376953125 180 191 213
1169 82 905.6014404296875 154 166 188
1170 82 906.6007690429688 175 187 209
1171 82 907.6001586914062 172 185 204
1174 82 908.5994873046875 176 187 209
1175 82 909.5988159179688 184 195 215
1176 82 910.59814453125 179 190 210
1178 82 909.5988159179688 166 177 199
1206 82 925.486328125 171 182 204
1207 82 926.48583984375 170 182 204
1208 82 927.4852905273438 158 168 193
1265 82 960.3519897460938 166 173 199
1266 82 961.3516235351562 173 184 206
1267 82 962.3512573242188 169 180 202
1270 82 963.3509521484375 186 199 218
1312 82 988.2677001953125 179 187 210
1313 82 989.2673950195312 189 197 218
1314 82 990.2671508789062 190 198 217
1315 82 991.266845703125 184 195 215
1414 82 1052.1217041015625 167 171 198
1420 82 1055.121337890625 189 195 217
1475 82 1091.0660400390625 180 186 208
1589 82 1167.0107421875 173 183 208
1590 82 1168.0107421875 183 194 216
1591 82 1169.0107421875 186 197 217
1595 82 1170.0107421875 184 196 220
1596 82 1171.0106201171875 182 201 218
1597 82 1172.0106201171875 182 201 218
1598 82 1173.0106201171875 184 197 216
1650 82 1208.001708984375 173 190 210
1651 82 1209.001708984375 179 198 215
1652 82 1210.001708984375 178 201 215
1653 82 1211.001708984375 174 195 212
1727 82 1261.0003662109375 168 175 203
1728 82 1262.0003662109375 168 175 203
1729 82 1263.0003662109375 169 176 204
1730 82 1264.0003662109375 173 183 210
1731 82 1265.0003662109375 166 176 203
1786 82 1304.006103515625 158 174 200
1793 82 1308.006103515625 160 177 203
1794 82 1309.006103515625 168 189 210
1795 82 1310.006103515625 164 185 206
1796 82 1311.006103515625 165 183 207
1890 82 1379.023193359375 154 170 196
1892 82 1381.023193359375 158 180 204
1893 82 1382.023193359375 160 182 205
1898 82 1384.0230712890625 155 172 198
1899 82 1385.0230712890625 165 187 210
1902 82 1388.0230712890625 161 181 205
713 83 705.1077880859375 65 84 90
714 83 706.1019897460938 76 93 100
722 83 707.09619140625 112 127 134
723 83 708.0903930664062 107 122 129
759 83 719.6110229492188 124 137 153
897 83 772.1813354492188 137 150 169
898 83 773.1785278320312 135 148 167
927 83 784.9293212890625 137 150 167
1041 83 838.1557006835938 153 165 187
1042 83 839.1543579101562 149 161 185
1047 83 842.1502075195312 168 179 201
1127 83 882.7757568359375 165 177 201
1128 83 883.7748413085938 178 189 211
1129 83 884.7739868164062 159 170 192
1132 83 885.7731323242188 182 194 216
1133 83 886.772216796875 168 180 202
1136 83 887.7713623046875 178 193 212
1137 83 888.7705078125 173 186 205
1169 83 905.638427734375 160 172 194
1170 83 906.6377563476562 172 184 206
1171 83 907.6370239257812 176 189 208
1172 83 908.6363525390625 176 188 210
1174 83 908.6363525390625 176 187 207
1175 83 909.6356201171875 184 195 215
1202 83 924.5198974609375 169 179 204
1206 83 925.519287109375 182 193 215
1207 83 926.5187377929688 179 191 213
1208 83 927.5181884765625 154 164 189
1265 83 960.379638671875 183 191 214
1266 83 961.3792114257812 186 197 217
1267 83 962.3788452148438 177 190 209
1270 83 963.37841796875 185 198 217
1409 83 1049.1376953125 168 172 199
1474 83 1090.0775146484375 167 171 198
1583 83 1163.0155029296875 170 176 202
1584 83 1164.0155029296875 171 179 202
1589 83 1167.015380859375 183 195 217
1590 83 1168.015380859375 188 201 218
1591 83 1169.015380859375 192 205 222
1595 83 1170.015380859375 186 198 220
1596 83 1171.015380859375 180 199 216
1597 83 1172.015380859375 175 194 211
1650 83 1208.0037841796875 174 189 210
1651 83 1209.003662109375 177 194 214
1652 83 1210.003662109375 169 190 207
1721 83 1258.0 160 169 198
1723 83 1260.0 162 172 199
1727 83 1261.0 180 190 217
1728 83 1262.0 178 188 215
1729 83 1263.0 185 197 221
1730 83 1264.0 179 191 215
1731 83 1265.0 169 181 205
1739 83 1271.0 167 185 207
1786 83 1304.00341796875 164 181 207
1787 83 1305.00341796875 159 179 203
1788 83 1306.00341796875 162 182 206
1789 83 1307.00341796875 169 187 211
1793 83 1308.00341796875 163 183 207
1794 83 1309.00341796875 173 195 216
1795 83 1310.00341796875 175 198 216
1796 83 1311.00341796875 167 187 211
1883 83 1374.017822265625 155 172 198
1884 83 1375.017822265625 153 170 196
1885 83 1376.017822265625 159 176 202
1891 83 1380.0177001953125 156 178 201
713 84 705.21630859375 84 102 106
714 84 706.2103271484375 100 115 120
823 84 741.9413452148438 140 153 170
824 84 742.9374389648438 150 163 180
923 84 784.0025634765625 145 156 176
927 84 785.0 153 166 183
1040 84 837.2102661132812 164 176 198
1041 84 838.2088012695312 155 168 187
1042 84 839.2073364257812 157 169 191
1071 84 854.0333862304688 163 174 196
1072 84 855.0321655273438 153 165 189
1074 84 854.0333862304688 169 182 201
1075 84 855.0321655273438 179 192 211
1076 84 856.0309448242188 163 176 195
1127 84 882.8182373046875 169 180 202
1128 84 883.8172607421875 180 193 212
1129 84 884.8163452148438 178 191 210
1132 84 885.8154296875 188 199 219
1169 84 905.676513671875 160 172 194
1170 84 906.67578125 173 184 206
1171 84 907.675048828125 175 186 208
1197 84 921.5557250976562 165 176 198
1198 84 922.55517578125 166 176 201
1201 84 923.5545654296875 179 189 214
1202 84 924.553955078125 174 185 207
1203 84 925.5533447265625 168 179 201
1206 84 925.5533447265625 184 195 217
1207 84 926.552734375 183 194 216
1265 84 960.4082641601562 188 199 219
1266 84 961.4078369140625 191 204 221
1360 84 1019.2163696289062 176 180 207
1405 84 1045.155029296875 172 178 202
1406 84 1046.1549072265625 172 178 202
1407 84 1047.1546630859375 168 174 198
1408 84 1048.154541015625 167 173 199
1578 84 1160.0211181640625 184 192 215
1579 84 1161.0211181640625 184 195 215
1583 84 1163.0211181640625 181 189 212
1584 84 1164.02099609375 185 200 219
1585 84 1165.02099609375 184 201 217
1589 84 1167.02099609375 185 198 215
1590 84 1168.02099609375 200 214 227
1591 84 1169.02099609375 188 202 215
1632 84 1195.0067138671875 175 185 212
1633 84 1196.0067138671875 179 191 215
1634 84 1197.0067138671875 172 187 210
1635 84 1198.0067138671875 171 186 209
1716 84 1255.0 161 170 199
1719 84 1256.0 166 177 207
1720 84 1257.0 157 168 196
1721 84 1258.0 177 191 217
1722 84 1259.0 174 189 212
1723 84 1260.0 175 190 211
1726 84 1260.0 172 184 208
1727 84 1261.0 179 191 215
1728 84 1262.0 175 191 214
1729 84 1263.0 173 190 210
1730 84 1264.0 165 180 201
1731 84 1265.0 169 184 205
1779 84 1299.0015869140625 158 172 199
1780 84 1300.0015869140625 163 180 206
1781 84 1301.0015869140625 168 186 210
1782 84 1302.0015869140625 167 185 209
1786 84 1304.0015869140625 161 181 205
1787 84 1305.0015869140625 178 200 221
1788 84 1306.0015869140625 177 203 220
1789 84 1307.0015869140625 172 195 213
1792 84 1307.0015869140625 162 179 205
1793 84 1308.0015869140625 163 183 207
1794 84 1309.0015869140625 165 187 208
1795 84 1310.0015869140625 169 190 209
1796 84 1311.00146484375 165 183 207
1840 84 1343.00927734375 152 168 194
1883 84 1374.0130615234375 156 176 200
1884 84 1375.0130615234375 156 178 201
1885 84 1376.0130615234375 159 184 206
1892 84 1381.0130615234375 154 176 200
703 85 703.3384399414062 59 75 72
713 85 705.326171875 101 116 121
748 85 715.835205078125 125 139 152
815 85 739.0432739257812 129 140 160
816 85 740.0391845703125 131 144 161
817 85 741.0350952148438 125 138 155
844 85 750.7329711914062 136 149 166
919 85 782.0798950195312 141 149 172
923 85 784.0745849609375 151 162 182
1032 85 834.2691650390625 160 171 193
1041 85 838.2630615234375 162 175 194
1070 85 853.0844116210938 168 179 201
1071 85 854.0831298828125 171 182 204
1072 85 855.0818481445312 168 180 204
1074 85 854.0831298828125 173 186 205
1075 85 855.0818481445312 178 191 210
1076 85 856.0806274414062 172 187 206
1127 85 882.86181640625 175 186 208
1128 85 883.86083984375 179 192 211
1196 85 920.5916748046875 169 176 202
1197 85 921.5910034179688 181 188 214
1198 85 922.5903930664062 176 187 209
1201 85 923.5897216796875 184 195 217
1202 85 924.589111328125 181 192 212
1203 85 925.5884399414062 173 184 204
1252 85 952.4415893554688 167 175 198
1253 85 953.441162109375 167 175 198
1293 85 976.3462524414062 162 168 194
1294 85 977.3458862304688 177 183 207
1295 85 978.3455200195312 183 189 213
1296 85 979.34521484375 179 185 209
1401 85 1044.1728515625 172 178 204
1408 85 1048.1722412109375 163 169 195
1576 85 1158.027587890625 170 174 201
1577 85 1159.027587890625 176 182 206
1578 85 1160.027587890625 194 205 225
1579 85 1161.027587890625 193 206 223
1580 85 1162.027587890625 191 204 223
1583 85 1163.0274658203125 182 190 213
1584 85 1164.0274658203125 189 205 221
1585 85 1165.0274658203125 185 204 219
1628 85 1194.010498046875 176 188 212
1632 85 1195.010498046875 187 199 223
1633 85 1196.010498046875 184 199 220
1634 85 1197.010498046875 183 198 219
1635 85 1198.0103759765625 176 191 212
1714 85 1253.0003662109375 162 176 203
1715 85 1254.0003662109375 163 179 204
1716 85 1255.0003662109375 179 193 219
1720 85 1257.0003662109375 158 172 198
1721 85 1258.0003662109375 179 195 218
1722 85 1259.0003662109375 172 189 209
1723 85 1260.0003662109375 172 189 207
1728 85 1262.0003662109375 175 191 214
1772 85 1294.0003662109375 152 163 193
1773 85 1295.0003662109375 160 171 199
1774 85 1296.0003662109375 168 179 207
1775 85 1297.0003662109375 173 184 212
1779 85 1299.0003662109375 167 183 209
1780 85 1300.0003662109375 166 186 210
1781 85 1301.0003662109375 167 189 210
1782 85 1302.0003662109375 166 188 209
1786 85 1304.0003662109375 169 189 213
1787 85 1305.0003662109375 173 194 215
1788 85 1306.0003662109375 169 192 210
1789 85 1307.0003662109375 168 191 209
1836 85 1339.0059814453125 151 168 194
1838 85 1341.0059814453125 164 180 206
1840 85 1343.0059814453125 157 171 198
1882 85 1373.0091552734375 160 180 204
1883 85 1374.0091552734375 163 183 207
1884 85 1375.009033203125 158 183 205
701 86 703.4500732421875 53 73 64
702 86 702.4564208984375 60 81 74
703 86 703.4500732421875 64 83 79
706 86 703.4500732421875 88 103 106
713 86 705.4374389648438 104 122 126
748 86 715.9392700195312 125 141 154
816 86 740.13037109375 142 153 171
817 86 741.1261596679688 140 151 169
844 86 750.8189086914062 141 154 173
845 86 751.8151245117188 144 157 176
885 86 767.4281616210938 136 149 168
1031 86 833.3264770507812 168 179 201
1032 86 834.3248901367188 165 176 198
1033 86 835.3233032226562 167 180 199
1066 86 851.1380615234375 166 179 198
1067 86 852.13671875 171 184 203
1068 86 853.1353759765625 168 181 200
1070 86 853.1353759765625 168 180 202
1071 86 854.1340942382812 183 195 219
1072 86 855.1327514648438 164 176 198
1115 86 875.913818359375 165 175 202
1116 86 876.9127807617188 160 172 196
1117 86 877.9117431640625 159 171 195
1152 86 895.7644653320312 156 168 192
1153 86 896.7636108398438 172 184 206
1154 86 897.7627563476562 159 171 193
1196 86 920.6280517578125 172 183 205
1197 86 921.6273803710938 183 194 216
1198 86 922.626708984375 183 194 214
1201 86 923.6259765625 176 187 209
1251 86 951.4730834960938 175 186 208
1252 86 952.4725952148438 183 194 214
1253 86 953.4720458984375 164 172 193
1254 86 954.4715576171875 159 165 189
1289 86 975.373779296875 181 187 213
1290 86 976.3734130859375 180 188 211
1293 86 976.3734130859375 171 177 201
1294 86 977.3729858398438 190 198 219
1295 86 978.3726196289062 189 197 216
1399 86 1042.19189453125 174 179 208
1400 86 1043.1917724609375 176 183 209
1575 86 1157.0350341796875 176 187 207
1576 86 1158.0350341796875 170 178 201
1577 86 1159.034912109375 179 187 210
1578 86 1160.034912109375 194 207 224
1579 86 1161.034912109375 187 203 218
1583 86 1163.0347900390625 180 188 211
1626 86 1192.01513671875 182 194 216
1627 86 1193.01513671875 177 192 213
1628 86 1194.0150146484375 179 196 214
1632 86 1195.0150146484375 186 201 220
1633 86 1196.0150146484375 189 206 224
1634 86 1197.0150146484375 185 200 219
1635 86 1198.0150146484375 166 181 202
1713 86 1252.0015869140625 165 181 207
1714 86 1253.0015869140625 165 186 207
1715 86 1254.0015869140625 171 196 216
1716 86 1255.0015869140625 177 200 218
1719 86 1256.0015869140625 173 187 213
1720 86 1257.0015869140625 172 187 208
1721 86 1258.0015869140625 181 198 218
1723 86 1260.0015869140625 170 185 206
1773 86 1295.0 175 191 216
1774 86 1296.0 179 197 219
1775 86 1297.0 177 198 217
1776 86 1298.0 176 194 216
1779 86 1299.0 166 184 208
1780 86 1300.0 172 194 215
1781 86 1301.0 175 201 218
1789 86 1307.0 159 175 200
1830 86 1336.00341796875 156 167 197
705 87 702.569580078125 93 107 108
706 87 703.5630493164062 100 114 117
742 87 715.0503540039062 118 131 147
816 87 740.2229614257812 145 156 174
885 87 767.50830078125 143 154 174
1031 87 833.3834838867188 174 185 207
1032 87 834.3818359375 173 185 207
1033 87 835.380126953125 169 182 201
1066 87 851.1903686523438 162 175 194
1067 87 852.18896484375 180 193 212
1068 87 853.1875610351562 169 182 201
1111 87 874.9611206054688 161 173 195
1112 87 875.9600219726562 164 176 198
1115 87 875.9600219726562 181 191 216
1116 87 876.9589233398438 168 180 204
1152 87 895.8063354492188 157 167 192
1153 87 896.805419921875 175 187 209
1154 87 897.8045654296875 180 192 214
1155 87 898.8036499023438 170 182 204
1196 87 920.66552734375 172 183 205
1197 87 921.664794921875 186 197 219
1246 87 949.5061645507812 170 176 202
1247 87 950.5056762695312 187 193 217
1248 87 951.505126953125 179 187 210
1251 87 951.505126953125 180 191 213
1252 87 952.5045776367188 190 201 221
1253 87 953.5040893554688 181 192 210
1285 87 973.4027709960938 176 184 207
1288 87 974.4024047851562 170 176 202
1289 87 975.4019775390625 187 193 219
1290 87 976.4015502929688 190 198 219
1291 87 977.401123046875 183 191 212
1293 87 976.4015502929688 172 178 202
1294 87 977.401123046875 189 197 216
1295 87 978.4007568359375 190 201 219
1394 87 1039.212158203125 168 172 197
1395 87 1040.2120361328125 188 192 217
1396 87 1041.2117919921875 189 193 220
1399 87 1042.2115478515625 186 192 218
1454 87 1077.1341552734375 173 180 199
1575 87 1157.043212890625 170 181 201
1576 87 1158.043212890625 172 180 203
1577 87 1159.0430908203125 184 192 215
1578 87 1160.0430908203125 184 197 216
1579 87 1161.0430908203125 177 193 209
1620 87 1188.0206298828125 178 190 214
1622 87 1190.0206298828125 186 201 222
1625 87 1191.0206298828125 171 183 205
1626 87 1192.0205078125 183 198 217
1627 87 1193.0205078125 185 204 221
1628 87 1194.0205078125 178 197 214
1632 87 1195.0205078125 174 189 210
1633 87 1196.0205078125 181 196 215
1634 87 1197.0205078125 162 174 196
1713 87 1252.0035400390625 175 189 215
1714 87 1253.0035400390625 175 197 218
1715 87 1254.0035400390625 173 199 216
1716 87 1255.0035400390625 169 192 210
1772 87 1294.0 169 185 210
1773 87 1295.0 174 192 216
1774 87 1296.0 170 191 210
1775 87 1297.0 173 196 214
1776 87 1298.0 169 190 209
1779 87 1299.0 166 184 208
1780 87 1300.0 172 194 215
1781 87 1301.0 162 187 207
1782 87 1302.0 160 182 203
697 88 699.7042236328125 51 64 57
698 88 700.697509765625 61 72 64
699 88 701.6907958984375 74 85 77
700 88 702.6841430664062 86 99 92
705 88 702.6841430664062 101 115 118
768 88 723.7927856445312 128 139 157
805 88 736.3348388671875 141 152 172
836 88 748.0067138671875 139 152 169
1107 88 873.0108642578125 156 167 189
1108 88 874.0097045898438 172 185 204
1111 88 875.008544921875 168 183 204
1112 88 876.0074462890625 175 187 209
1115 88 876.0074462890625 185 197 219
1116 88 877.0062866210938 181 193 215
1117 88 878.005126953125 169 181 203
1153 88 896.848388671875 184 196 218
1154 88 897.847412109375 184 197 216
1239 88 946.5410766601562 162 170 193
1241 88 946.5410766601562 164 171 197
1242 88 947.54052734375 179 187 210
1243 88 948.5399169921875 180 188 211
1244 88 949.5393676757812 174 182 205
1246 88 949.5393676757812 180 188 211
1247 88 950.538818359375 186 194 215
1248 88 951.5382080078125 182 195 214
1282 88 970.4334106445312 168 175 201
1283 88 971.4329833984375 164 172 195
1284 88 972.4324951171875 173 184 206
1285 88 973.4320678710938 184 195 215
1286 88 974.431640625 181 192 212
1289 88 975.4312133789062 185 191 215
1290 88 976.4307250976562 192 200 219
1291 88 977.4302978515625 185 193 212
1388 88 1035.2337646484375 168 172 199
1389 88 1036.2335205078125 172 178 202
1390 88 1037.2333984375 180 188 211
1391 88 1038.233154296875 178 184 208
1560 88 1147.052734375 182 188 212
1561 88 1148.052734375 183 191 212
1562 88 1149.0526123046875 185 193 214
1563 88 1150.0526123046875 179 187 208
1613 88 1183.027099609375 174 179 208
1614 88 1184.0269775390625 170 176 202
1615 88 1185.0269775390625 190 197 223
1616 88 1186.0269775390625 185 197 219
1619 88 1187.0269775390625 169 184 205
1620 88 1188.0269775390625 181 200 217
1621 88 1189.02685546875 182 203 220
1622 88 1190.02685546875 176 197 214
1625 88 1191.02685546875 176 191 212
1626 88 1192.02685546875 180 197 215
1627 88 1193.02685546875 172 191 208
1713 88 1252.00634765625 167 179 203
1714 88 1253.00634765625 180 197 217
1715 88 1254.00634765625 166 184 204
1772 88 1294.0003662109375 168 186 208
1773 88 1295.0003662109375 176 192 215
1774 88 1296.0003662109375 177 195 215
1775 88 1297.0003662109375 170 191 210
1824 88 1332.0003662109375 163 180 206
1856 88 1354.00146484375 154 168 197
1857 88 1355.00146484375 151 166 195
1858 88 1356.00146484375 157 174 200
698 89 700.8138427734375 84 97 90
699 89 701.8069458007812 90 101 95
702 89 702.8001098632812 102 112 114
768 89 723.8956909179688 139 150 168
836 89 748.096923828125 147 160 177
837 89 749.0927734375 148 161 178
876 89 763.6864624023438 143 154 174
905 89 775.4031372070312 140 148 169
906 89 776.4000244140625 141 152 172
1102 89 870.063232421875 152 164 186
1103 89 871.06201171875 159 171 193
1104 89 872.060791015625 164 175 197
1106 89 872.060791015625 150 160 185
1107 89 873.0595703125 170 182 204
1108 89 874.058349609375 175 188 207
1111 89 875.05712890625 179 194 215
1112 89 876.055908203125 176 189 208
1141 89 889.8994140625 171 181 206
1142 89 890.8984375 161 171 196
1178 89 909.752685546875 163 173 198
1179 89 910.7518920898438 168 178 203
1180 89 911.7510375976562 169 179 204
1236 89 943.5772094726562 160 170 195
1237 89 944.5765991210938 173 183 208
1238 89 945.5759887695312 173 184 206
1239 89 946.5753784179688 173 181 204
1242 89 947.5748291015625 186 197 219
1243 89 948.57421875 182 193 215
1244 89 949.5736083984375 175 186 208
1246 89 949.5736083984375 181 189 210
1282 89 970.4638061523438 171 179 202
1283 89 971.4633178710938 154 162 185
1284 89 972.4628295898438 183 194 216
1285 89 973.46240234375 189 200 220
1286 89 974.4619140625 185 196 216
1289 89 975.46142578125 187 193 215
1388 89 1035.2554931640625 174 178 205
1390 89 1037.2550048828125 188 199 219
1391 89 1038.2547607421875 181 189 210
1560 89 1147.062744140625 182 190 211
1561 89 1148.062744140625 188 199 217
1562 89 1149.0626220703125 190 201 219
1563 89 1150.0626220703125 185 196 216
1568 89 1153.0625 177 190 209
1613 89 1183.0341796875 169 176 202
1614 89 1184.0341796875 188 198 223
1615 89 1185.0341796875 190 202 224
1616 89 1186.0341796875 184 199 218
1619 89 1187.0341796875 178 193 214
1620 89 1188.0340576171875 181 200 217
1621 89 1189.0340576171875 181 202 219
1622 89 1190.0340576171875 168 189 206
1752 89 1279.0015869140625 161 177 203
1753 89 1280.0015869140625 164 180 206
1754 89 1281.0015869140625 163 179 204
1755 89 1282.0015869140625 168 184 209
1756 89 1283.0015869140625 163 179 204
1856 89 1354.0003662109375 166 182 208
1857 89 1355.0003662109375 168 185 211
1858 89 1356.0003662109375 172 192 217
1859 89 1357.0003662109375 166 188 212
697 90 699.9385986328125 79 94 89
698 90 700.9315185546875 101 116 113
699 90 701.9244995117188 103 115 113
805 90 736.5276489257812 147 158 176
872 90 762.7745361328125 137 150 169
1016 90 825.5767822265625 155 166 188
1017 90 826.5748901367188 164 175 197
1018 90 827.5729370117188 161 173 195
1052 90 844.3654174804688 169 181 203
1102 90 870.1132202148438 160 172 194
1103 90 871.1119384765625 165 177 199
1104 90 872.1106567382812 173 185 207
1107 90 873.109375 176 188 210
1108 90 874.1080932617188 182 195 214
1136 90 887.9470825195312 163 175 197
1137 90 888.9459838867188 160 172 194
1141 90 889.9449462890625 183 194 216
1142 90 890.9439086914062 174 186 208
1175 90 909.7939453125 174 185 207
1176 90 910.7930908203125 176 187 209
1178 90 909.7939453125 166 178 200
1179 90 910.7930908203125 178 190 212
1180 90 911.7921752929688 179 191 213
1236 90 943.6127319335938 156 167 189
1237 90 944.612060546875 174 186 208
1238 90 945.6114501953125 181 194 213
1239 90 946.6107788085938 179 192 211
1275 90 966.497314453125 180 188 211
1276 90 967.4967651367188 179 190 210
1283 90 971.4947509765625 160 168 191
1389 90 1036.2779541015625 192 203 223
1560 90 1147.0736083984375 189 200 218
1561 90 1148.0736083984375 184 197 213
1562 90 1149.073486328125 184 197 213
1613 90 1183.042236328125 173 184 206
1614 90 1184.042236328125 191 204 223
1615 90 1185.042236328125 186 201 220
1616 90 1186.0421142578125 179 194 213
1620 90 1188.0421142578125 173 185 207
1688 90 1234.0145263671875 168 175 204
1689 90 1235.0145263671875 176 185 214
1690 90 1236.0145263671875 173 187 213
1691 90 1237.0145263671875 165 181 204
1747 90 1277.0035400390625 162 173 201
1753 90 1280.0035400390625 172 190 214
1754 90 1281.0035400390625 176 197 218
1755 90 1282.0035400390625 173 194 215
1756 90 1283.0035400390625 174 195 216
1849 90 1350.0 157 177 202
696 91 699.0650634765625 68 80 78
697 91 700.057861328125 75 90 87
698 91 701.0506591796875 97 111 111
796 91 732.6458740234375 135 146 166
797 91 733.6409301757812 133 144 164
824 91 743.303466796875 132 145 162
869 91 761.8641357421875 134 145 165
898 91 773.5696411132812 140 153 172
1013 91 825.63916015625 158 169 191
1014 91 826.6371459960938 155 166 188
1017 91 826.6371459960938 173 184 206
1018 91 827.6351928710938 167 180 199
1047 91 842.42626953125 170 180 207
1048 91 843.424560546875 177 188 210
1051 91 843.424560546875 170 185 206
1052 91 844.4228515625 179 192 211
1096 91 867.1683959960938 158 169 191
1102 91 870.1643676757812 162 174 196
1103 91 871.1630249023438 184 196 218
1132 91 885.9960327148438 163 174 196
1133 91 886.9949340820312 166 177 199
1136 91 887.9938354492188 175 187 209
1137 91 888.99267578125 183 195 217
1141 91 889.9915771484375 186 197 217
1142 91 890.990478515625 175 187 209
1170 91 906.8389892578125 160 170 195
1171 91 907.8380737304688 175 185 210
1172 91 908.837158203125 167 177 202
1174 91 908.837158203125 166 176 201
1175 91 909.8362426757812 186 197 219
1176 91 910.8353271484375 184 195 215
1179 91 910.8353271484375 181 193 215
1180 91 911.8344116210938 179 191 213
1236 91 943.6492919921875 165 176 198
1237 91 944.6486206054688 177 190 209
1238 91 945.64794921875 185 198 215
1239 91 946.647216796875 179 192 209
1271 91 964.5309448242188 183 189 213
1275 91 966.5298461914062 181 192 214
1276 91 967.5293579101562 187 198 218
1375 91 1027.30419921875 169 173 198
1376 91 1028.303955078125 171 172 200
1544 91 1136.0863037109375 172 178 200
1545 91 1137.086181640625 169 175 199
1546 91 1138.0860595703125 176 180 205
1560 91 1147.08544921875 180 188 209
1613 91 1183.0511474609375 174 185 207
1614 91 1184.0511474609375 176 189 208
1682 91 1231.0198974609375 173 178 207
1683 91 1232.0198974609375 170 177 205
1684 91 1233.0198974609375 170 180 205
1685 91 1234.0198974609375 172 182 207
1688 91 1234.0198974609375 177 187 214
1689 91 1235.0198974609375 177 191 217
1690 91 1236.019775390625 187 203 226
1746 91 1276.0062255859375 160 174 200
1747 91 1277.0062255859375 167 183 208
1753 91 1280.0062255859375 175 193 217
1754 91 1281.0062255859375 177 198 219
1755 91 1282.0062255859375 179 202 220
1756 91 1283.0062255859375 177 198 217
1840 91 1343.0 155 169 198
796 92 732.7462158203125 139 147 168
797 92 733.7410888671875 134 145 165
1009 92 823.7068481445312 165 176 198
1010 92 824.7047729492188 157 168 190
1013 92 825.7027587890625 172 183 203
1014 92 826.70068359375 168 179 199
1047 92 842.4849853515625 175 187 209
1092 92 865.2236938476562 152 163 185
1102 92 870.2166137695312 160 172 194
1103 92 871.2152709960938 179 191 213
1128 92 884.04638671875 175 186 208
1129 92 885.0452270507812 160 171 191
1132 92 886.0440063476562 173 184 206
1133 92 887.0428466796875 178 189 211
1136 92 888.0416870117188 184 197 216
1137 92 889.0404663085938 183 198 217
1138 92 890.039306640625 170 182 204
1169 92 905.883544921875 151 163 187
1170 92 906.882568359375 166 178 202
1171 92 907.881591796875 175 187 209
1172 92 908.880615234375 173 184 206
1174 92 908.880615234375 169 181 203
1175 92 909.879638671875 188 201 220
1176 92 910.8787231445312 186 199 216
1225 92 937.6912841796875 171 182 204
1265 92 960.5670166015625 172 180 203
1266 92 961.56640625 178 189 209
1267 92 962.5658569335938 170 181 201
1275 92 966.5634765625 188 199 221
1276 92 967.5629272460938 184 195 215
1370 92 1025.3297119140625 173 179 203
1373 92 1025.3297119140625 175 181 205
1543 92 1135.09912109375 185 191 213
1544 92 1136.0989990234375 187 195 214
1545 92 1137.0989990234375 182 193 211
1546 92 1138.098876953125 184 192 213
1597 92 1172.0614013671875 184 195 215
1598 92 1173.0614013671875 189 202 221
1675 92 1226.026123046875 156 161 191
1676 92 1227.026123046875 157 164 193
1677 92 1228.0260009765625 167 174 203
1678 92 1229.0260009765625 168 178 205
1682 92 1231.0260009765625 176 188 212
1683 92 1232.0260009765625 190 205 226
1684 92 1233.0260009765625 181 196 215
1688 92 1234.02587890625 181 198 218
1689 92 1235.02587890625 181 199 219
1690 92 1236.02587890625 177 195 215
1691 92 1237.02587890625 174 192 212
1746 92 1276.009765625 168 189 210
1752 92 1279.009765625 167 183 208
1753 92 1280.009765625 167 183 208
1754 92 1281.009765625 175 193 215
1755 92 1282.009765625 170 188 210
1756 92 1283.009765625 166 182 205
1797 92 1312.00341796875 167 174 203
1836 92 1339.0003662109375 164 181 207
1837 92 1340.0003662109375 165 183 207
1838 92 1341.0003662109375 161 181 205
1840 92 1343.0003662109375 165 183 207
1841 92 1344.0003662109375 164 182 206
1843 92 1346.0003662109375 171 191 215
1898 92 1384.0003662109375 164 180 206
1900 92 1386.0003662109375 153 169 194
1901 92 1387.0003662109375 146 160 186
1902 92 1388.0003662109375 141 152 180
723 93 708.7594604492188 111 124 133
817 93 741.50390625 134 145 163
824 93 743.4944458007812 154 165 183
1008 93 822.7739868164062 156 167 189
1009 93 823.7717895507812 167 178 200
1010 93 824.7696533203125 171 182 204
1041 93 838.5523071289062 164 176 198
1042 93 839.5504760742188 157 172 193
1090 93 863.2803955078125 157 168 190
1091 93 864.2788696289062 162 173 195
1092 93 865.2774047851562 165 176 198
1127 93 883.0968017578125 165 176 198
1128 93 884.0955810546875 171 182 202
1129 93 885.0943603515625 178 189 209
1132 93 886.0931396484375 178 189 211
1133 93 887.0918579101562 181 192 214
1136 93 888.0906372070312 177 190 209
1170 93 906.92724609375 183 195 217
1171 93 907.9262084960938 189 201 223
1172 93 908.9251708984375 183 194 216
1220 93 935.7318115234375 177 181 206
1223 93 935.7318115234375 178 185 211
1224 93 936.7310180664062 182 193 215
1225 93 937.730224609375 181 192 214
1226 93 938.7294311523438 172 179 205
1265 93 960.6018676757812 181 189 212
1266 93 961.6012573242188 183 194 214
1267 93 962.6006469726562 180 193 210
1368 93 1023.3562622070312 171 175 202
1369 93 1024.3558349609375 185 191 215
1370 93 1025.3555908203125 186 192 216
1537 93 1132.113037109375 178 180 205
1538 93 1133.1129150390625 187 193 215
1539 93 1134.1129150390625 185 191 213
1543 93 1135.11279296875 189 197 216
1544 93 1136.1126708984375 184 196 212
1545 93 1137.112548828125 186 197 215
1591 93 1169.072265625 181 189 212
1595 93 1170.072265625 177 185 208
1596 93 1171.0721435546875 189 200 220
1597 93 1172.0721435546875 190 203 222
1598 93 1173.072021484375 185 198 215
1674 93 1225.0330810546875 171 178 207
1675 93 1226.0330810546875 162 169 198
1676 93 1227.032958984375 172 181 210
1677 93 1228.032958984375 184 194 221
1678 93 1229.032958984375 187 197 222
1681 93 1230.032958984375 168 180 202
1682 93 1231.032958984375 181 196 217
1683 93 1232.0328369140625 186 201 220
1684 93 1233.0328369140625 183 199 215
1731 93 1265.0142822265625 167 176 205
1746 93 1276.01416015625 172 194 215
1794 93 1309.006103515625 161 170 199
1795 93 1310.006103515625 168 178 205
1796 93 1311.006103515625 171 181 208
1797 93 1312.006103515625 161 170 199
1829 93 1335.00146484375 155 172 198
1830 93 1336.00146484375 149 166 192
1840 93 1343.00146484375 162 182 206
1841 93 1344.00146484375 159 179 203
1842 93 1345.00146484375 170 190 214
1894 93 1383.0 153 169 195
1899 93 1385.0 159 175 200
1900 93 1386.0 164 182 206
1901 93 1387.0 153 169 194
1902 93 1388.0 163 177 204
723 94 708.8758544921875 120 134 143
724 94 709.8690185546875 125 139 148
749 94 717.4740600585938 127 139 155
816 94 740.6065063476562 132 140 161
817 94 741.6016235351562 144 152 173
821 94 743.5919799804688 149 160 178
856 94 756.1547241210938 139 150 170
1009 94 823.8379516601562 166 177 199
1037 94 837.6156616210938 167 178 198
1041 94 838.6137084960938 170 183 202
1042 94 839.61181640625 162 175 194
1090 94 863.3353881835938 163 175 197
1091 94 864.3338623046875 180 192 214
1092 94 865.3323364257812 169 181 203
1127 94 883.147216796875 164 176 198
1128 94 884.1459350585938 179 192 209
1129 94 885.1445922851562 184 197 214
1132 94 886.143310546875 175 186 208
1219 94 934.772705078125 180 186 212
1223 94 935.7718505859375 177 185 208
1224 94 936.7710571289062 191 202 222
1225 94 937.7702026367188 188 199 219
1265 94 960.6378173828125 185 193 216
1266 94 961.6371459960938 185 196 216
1267 94 962.636474609375 181 192 210
1363 94 1020.3842163085938 176 177 205
1365 94 1022.3834838867188 173 177 202
1422 94 1057.2724609375 179 190 208
1531 94 1128.1280517578125 166 170 195
1532 94 1129.1279296875 173 179 201
1533 94 1130.1279296875 181 189 210
1537 94 1132.127685546875 186 194 215
1538 94 1133.1275634765625 188 201 218
1539 94 1134.12744140625 187 198 216
1542 94 1134.12744140625 183 189 211
1543 94 1135.1273193359375 189 196 215
1544 94 1136.127197265625 188 197 214
1545 94 1137.1270751953125 178 186 205
1589 94 1167.083984375 178 189 211
1590 94 1168.0838623046875 180 193 212
1591 94 1169.0838623046875 181 196 215
1595 94 1170.083740234375 184 192 213
1596 94 1171.083740234375 184 195 215
1597 94 1172.0836181640625 183 196 215
1598 94 1173.08349609375 174 182 205
1674 94 1225.040771484375 160 170 197
1675 94 1226.040771484375 174 186 212
1676 94 1227.040771484375 182 197 220
1677 94 1228.040771484375 195 210 231
1678 94 1229.0406494140625 186 199 218
1682 94 1231.0406494140625 181 194 213
1683 94 1232.04052734375 180 193 212
1728 94 1262.0194091796875 164 176 202
1729 94 1263.0194091796875 173 185 211
1730 94 1264.0194091796875 175 189 215
1731 94 1265.0194091796875 166 180 206
1775 94 1297.013916015625 170 191 212
1822 94 1330.00341796875 159 170 200
1823 94 1331.00341796875 160 174 203
1824 94 1332.00341796875 162 178 204
1829 94 1335.00341796875 166 188 209
1830 94 1336.00341796875 171 193 216
1841 94 1344.0032958984375 162 178 204
1890 94 1379.0 151 168 196
1891 94 1380.0 147 167 192
1892 94 1381.0 146 166 191
1893 94 1382.0 154 176 200
1894 94 1383.0 163 183 207
1898 94 1384.0 156 172 197
1899 94 1385.0 167 185 209
1900 94 1386.0 166 187 208
1901 94 1387.0 166 187 208
1902 94 1388.0 158 179 200
742 95 715.5990600585938 120 132 148
787 95 731.0663452148438 146 157 177
817 95 741.7007446289062 148 156 177
1031 95 833.6864013671875 159 169 194
1033 95 835.682373046875 170 181 203
1037 95 837.6783447265625 171 182 202
1117 95 878.20556640625 152 164 186
1128 95 884.1973876953125 178 191 210
1154 95 898.0300903320312 165 176 198
1155 95 899.0289306640625 160 171 193
1214 95 931.8165283203125 168 175 201
1219 95 934.8139038085938 183 191 214
1251 95 951.68115234375 172 178 204
1252 95 952.680419921875 167 173 197
1253 95 953.6796875 166 172 196
1358 95 1017.4133911132812 173 173 199
1359 95 1018.4129638671875 176 178 203
1360 95 1019.41259765625 176 178 203
1526 95 1125.14404296875 180 186 208
1527 95 1126.1439208984375 181 187 209
1528 95 1127.1436767578125 180 186 208
1531 95 1128.1435546875 184 188 213
1532 95 1129.1434326171875 191 199 220
1533 95 1130.143310546875 183 194 212
1537 95 1132.14306640625 193 204 224
1538 95 1133.1429443359375 188 201 217
1539 95 1134.142822265625 183 196 212
1584 95 1164.0966796875 193 199 223
1585 95 1165.0965576171875 195 203 224
1589 95 1167.096435546875 180 192 214
1590 95 1168.0963134765625 183 198 217
1591 95 1169.09619140625 188 203 222
1674 95 1225.0494384765625 169 179 206
1675 95 1226.04931640625 172 184 210
1676 95 1227.04931640625 179 191 213
1677 95 1228.04931640625 174 187 206
1678 95 1229.0491943359375 172 183 205
1720 95 1257.0255126953125 167 174 203
1721 95 1258.025390625 165 174 203
1722 95 1259.025390625 174 184 211
1723 95 1260.025390625 172 184 210
1727 95 1261.025390625 178 193 216
1728 95 1262.025390625 180 195 218
1729 95 1263.025390625 181 197 220
1730 95 1264.0252685546875 174 192 214
1731 95 1265.0252685546875 168 186 208
1822 95 1330.0059814453125 173 187 216
1824 95 1332.0059814453125 170 190 214
1883 95 1374.0003662109375 152 167 196
1884 95 1375.0003662109375 150 164 193
1885 95 1376.0003662109375 153 167 196
1891 95 1380.0003662109375 160 177 203
1892 95 1381.0003662109375 162 184 207
1893 95 1382.0003662109375 170 192 215
1899 95 1385.0003662109375 169 187 211
1900 95 1386.0003662109375 176 194 216
1901 95 1387.0003662109375 171 192 213
1902 95 1388.0003662109375 164 185 206
742 96 715.7129516601562 124 133 150
994 96 815.9932861328125 155 166 188
995 96 816.9908447265625 159 171 193
1031 96 833.7505493164062 160 172 194
1032 96 834.7484741210938 175 186 206
1033 96 835.7463989257812 174 187 206
1076 96 856.4607543945312 163 171 194
1077 96 857.4590454101562 156 167 189
1115 96 876.2613525390625 170 182 206
1116 96 877.2599487304688 174 186 208
1117 96 878.2584838867188 165 177 199
1153 96 897.0797119140625 168 175 201
1154 96 898.0784912109375 174 185 207
1155 96 899.0773315429688 167 179 201
1208 96 927.8626098632812 167 175 198
1214 96 931.85888671875 175 186 208
1215 96 932.8579711914062 179 192 211
1251 96 951.719482421875 170 176 202
1252 96 952.71875 182 190 211
1253 96 953.718017578125 175 183 204
1254 96 954.7172241210938 166 174 197
1357 96 1016.4428100585938 169 171 196
1525 96 1124.1605224609375 169 175 197
1526 96 1125.160400390625 191 202 220
1527 96 1126.1602783203125 187 200 216
1528 96 1127.16015625 184 197 213
1531 96 1128.1600341796875 185 193 214
1532 96 1129.159912109375 193 205 221
1533 96 1130.15966796875 186 198 212
1537 96 1132.159423828125 180 188 209
1576 96 1158.1104736328125 173 179 203
1578 96 1160.1103515625 190 198 219
1579 96 1161.1102294921875 193 204 222
1580 96 1162.110107421875 186 197 217
1583 96 1163.110107421875 176 184 207
1584 96 1164.1099853515625 185 196 214
1585 96 1165.10986328125 194 207 223
1589 96 1167.109619140625 178 189 211
1590 96 1168.109619140625 177 188 210
1591 96 1169.1094970703125 176 187 209
1714 96 1253.0323486328125 172 179 207
1715 96 1254.0323486328125 170 177 205
1716 96 1255.0322265625 166 176 203
1720 96 1257.0322265625 173 183 210
1721 96 1258.0322265625 172 184 208
1722 96 1259.0322265625 184 201 221
1723 96 1260.0321044921875 174 192 212
1727 96 1261.0321044921875 176 194 214
1728 96 1262.0321044921875 184 205 222
1729 96 1263.0321044921875 179 202 218
1730 96 1264.031982421875 175 198 214
1814 96 1324.0093994140625 160 174 201
1815 96 1325.0093994140625 158 174 200
1816 96 1326.0093994140625 162 179 205
1817 96 1327.0093994140625 161 181 206
1883 96 1374.00146484375 153 173 198
1884 96 1375.00146484375 157 177 202
1885 96 1376.00146484375 162 182 207
1886 96 1377.00146484375 166 186 211
1888 96 1379.00146484375 161 181 205
1891 96 1380.00146484375 170 188 212
1892 96 1381.00146484375 178 196 218
1893 96 1382.00146484375 166 187 208
1894 96 1383.00146484375 173 196 214
1901 96 1387.00146484375 157 171 197
697 97 700.549072265625 84 88 91
778 97 727.30322265625 136 144 165
876 97 764.1217041015625 134 147 166
994 97 816.063720703125 163 174 196
995 97 817.0612182617188 167 179 201
1033 97 835.8115844726562 165 178 197
1075 97 855.521484375 164 171 197
1076 97 856.5197143554688 167 178 200
1077 97 857.5179443359375 154 166 188
1111 97 875.3170776367188 169 181 205
1112 97 876.3156127929688 168 180 202
1115 97 876.3156127929688 179 191 215
1116 97 877.3140869140625 183 195 217
1117 97 878.3125610351562 176 189 208
1153 97 897.1293334960938 178 186 209
1154 97 898.1280517578125 186 197 219
1155 97 899.1267700195312 183 194 216
1207 97 926.9072265625 176 184 207
1208 97 927.90625 168 176 199
1209 97 928.9052734375 168 176 199
1246 97 949.760498046875 170 176 200
1247 97 950.7597045898438 186 192 216
1248 97 951.7589111328125 173 179 203
1251 97 951.7589111328125 176 184 207
1252 97 952.7581176757812 187 195 216
1253 97 953.75732421875 184 192 213
1254 97 954.7565307617188 163 174 196
1357 97 1016.4728393554688 174 178 203
1525 97 1124.177978515625 186 194 213
1526 97 1125.177734375 188 200 216
1527 97 1126.1776123046875 188 201 217
1528 97 1127.177490234375 174 186 202
1531 97 1128.17724609375 179 185 207
1532 97 1129.1771240234375 181 190 207
1577 97 1159.1246337890625 178 186 207
1578 97 1160.12451171875 191 202 220
1579 97 1161.12451171875 189 202 219
1580 97 1162.1243896484375 184 197 214
1584 97 1164.1241455078125 180 191 209
1585 97 1165.1240234375 179 191 207
1651 97 1209.0699462890625 164 174 199
1652 97 1210.06982421875 167 177 204
1653 97 1211.06982421875 172 182 209
1714 97 1253.0399169921875 176 186 211
1715 97 1254.0399169921875 178 190 214
1716 97 1255.039794921875 184 196 220
1720 97 1257.039794921875 178 190 214
1721 97 1258.039794921875 178 193 214
1722 97 1259.0396728515625 177 195 215
1723 97 1260.0396728515625 169 192 208
1727 97 1261.0396728515625 173 194 213
1728 97 1262.0396728515625 171 194 210
1729 97 1263.03955078125 171 194 210
1774 97 1296.024658203125 169 185 210
1814 97 1324.0135498046875 161 177 203
1815 97 1325.0135498046875 175 193 217
1816 97 1326.0135498046875 175 197 220
1883 97 1374.0032958984375 158 180 204
1884 97 1375.0032958984375 160 182 206
1885 97 1376.0032958984375 165 189 213
1886 97 1377.0032958984375 171 193 216
1887 97 1378.0032958984375 178 200 223
696 98 699.6834716796875 75 80 83
805 98 737.0332641601562 148 159 179
844 98 751.5537109375 149 160 178
875 98 763.2168579101562 142 153 173
1071 98 854.58349609375 168 180 202
1072 98 855.5816650390625 161 172 194
1075 98 855.5816650390625 172 184 206
1076 98 856.579833984375 169 181 203
1077 98 857.5780029296875 161 174 193
1107 98 873.3756103515625 168 180 202
1108 98 874.3740844726562 171 183 205
1111 98 875.3724975585938 167 182 203
1112 98 876.3709106445312 184 197 216
1113 98 877.369384765625 171 184 203
1115 98 876.3709106445312 170 182 204
1116 98 877.369384765625 178 189 209
1153 98 897.1800537109375 175 187 209
1201 98 923.955078125 171 178 204
1202 98 924.9540405273438 178 186 209
1203 98 925.9530029296875 174 182 205
1206 98 925.9530029296875 192 203 221
1207 98 926.9519653320312 184 195 213
1208 98 927.9509887695312 171 179 200
1209 98 928.949951171875 167 175 198
1242 98 947.802734375 177 188 210
1243 98 948.8018798828125 175 186 206
1244 98 949.801025390625 174 185 207
1246 98 949.801025390625 182 190 211
1247 98 950.8001708984375 196 204 223
1248 98 951.7993774414062 196 204 223
1249 98 952.7985229492188 171 179 198
1525 98 1124.1961669921875 185 191 213
1526 98 1125.1959228515625 186 194 213
1527 98 1126.19580078125 178 186 205
1569 98 1154.140380859375 183 191 212
1576 98 1158.139892578125 171 179 200
1577 98 1159.1397705078125 181 189 210
1578 98 1160.1396484375 182 193 211
1579 98 1161.1395263671875 181 194 211
1651 98 1209.0810546875 171 186 209
1652 98 1210.0809326171875 177 194 214
1653 98 1211.0809326171875 173 190 210
1713 98 1252.04833984375 171 181 206
1714 98 1253.04833984375 181 196 217
1715 98 1254.0482177734375 179 196 216
1716 98 1255.0482177734375 182 199 217
1720 98 1257.048095703125 173 188 211
1721 98 1258.048095703125 176 191 212
1722 98 1259.048095703125 175 193 213
1723 98 1260.0479736328125 169 188 205
1813 98 1323.0185546875 168 184 209
1816 98 1326.0184326171875 170 191 212
1885 98 1376.005859375 161 183 206
1887 98 1378.005859375 154 172 196
696 99 699.8114013671875 78 83 86
705 99 703.525390625 108 123 130
768 99 724.5419311523438 130 141 159
797 99 734.1552734375 137 148 168
798 99 735.149658203125 138 146 167
985 99 812.2191772460938 156 164 187
1014 99 826.9667358398438 152 163 185
1017 99 826.9667358398438 164 175 197
1018 99 827.96435546875 162 173 195
1066 99 851.6507568359375 159 170 192
1067 99 852.6488037109375 165 175 200
1068 99 853.6469116210938 157 168 190
1071 99 854.6449584960938 171 183 205
1072 99 855.6430053710938 175 186 206
1075 99 855.6430053710938 176 188 210
1076 99 856.64111328125 179 192 211
1102 99 870.437255859375 151 163 185
1103 99 871.4356079101562 166 178 200
1104 99 872.4339599609375 167 179 201
1107 99 873.4323120117188 177 189 211
1108 99 874.4306640625 182 195 214
1111 99 875.4290161132812 172 184 206
1112 99 876.4274291992188 180 193 212
1141 99 890.2415161132812 177 188 210
1142 99 891.2401733398438 180 191 213
1143 99 892.23876953125 162 173 195
1196 99 921.0043334960938 161 168 194
1197 99 922.0032348632812 168 178 203
1198 99 923.002197265625 169 179 204
1201 99 924.0010986328125 180 187 213
1202 99 925.0 187 195 218
1203 99 925.9989013671875 176 184 207
1206 99 925.9989013671875 191 202 220
1207 99 926.9978637695312 186 195 212
1237 99 944.8471069335938 166 174 197
1238 99 945.84619140625 179 187 208
1239 99 946.8452758789062 179 187 208
1242 99 947.8444213867188 183 194 214
1243 99 948.843505859375 187 200 219
1244 99 949.8425903320312 187 198 220
1246 99 949.8425903320312 176 187 207
1247 99 950.8417358398438 196 204 223
1343 99 1007.5405883789062 182 184 209
1344 99 1008.5400390625 187 192 214
1508 99 1112.2176513671875 175 175 203
1509 99 1113.2174072265625 181 183 208
1510 99 1114.2171630859375 186 191 213
1511 99 1115.217041015625 186 192 214
1563 99 1150.156982421875 185 191 213
1650 99 1208.0931396484375 172 187 210
1651 99 1209.093017578125 180 197 217
1652 99 1210.093017578125 185 202 220
1653 99 1211.0928955078125 176 193 211
1713 99 1252.0574951171875 179 189 214
1714 99 1253.0574951171875 178 193 214
1715 99 1254.057373046875 171 188 206
1716 99 1255.057373046875 169 188 205
1717 99 1256.057373046875 173 192 209
1721 99 1258.0572509765625 174 186 210
1796 99 1311.0244140625 155 175 200
1797 99 1312.0244140625 154 171 197
696 100 699.9407348632812 71 76 79
698 100 701.6672973632812 94 99 102
699 100 702.6592407226562 94 102 104
700 100 703.6511840820312 109 120 122
724 100 710.2260131835938 113 125 137
768 100 724.6544189453125 137 145 164
797 100 734.26220703125 146 154 175
798 100 735.2564086914062 137 148 168
837 100 749.7606201171875 142 153 173
985 100 812.2936401367188 170 178 199
1013 100 826.0387573242188 161 173 195
1014 100 827.0362548828125 169 180 202
