ply
format ascii 1.0
element vertex 1238
property float x
property float y
property float z
property float red
property float green
property float blue
end_header
1175 105 910.3197021484375 174 182 205
1176 105 911.3182983398438 188 196 217
1179 105 911.3182983398438 182 190 213
1180 105 912.3168334960938 192 203 223
1181 105 913.3153686523438 185 196 214
1214 105 932.1357421875 167 173 197
1219 105 935.132080078125 181 189 210
1220 105 936.130859375 191 203 219
1314 105 990.7678833007812 173 179 201
1318 105 992.766357421875 179 183 208
1320 105 994.7647705078125 184 190 214
1482 105 1096.357666015625 184 189 211
1483 105 1097.3572998046875 185 190 212
1488 105 1099.356689453125 195 204 221
1489 105 1100.3563232421875 176 184 203
1490 105 1101.35595703125 176 178 201
1533 105 1130.2764892578125 186 191 213
1534 105 1131.2762451171875 188 193 215
1537 105 1132.2760009765625 183 190 209
1538 105 1133.2757568359375 191 202 220
1539 105 1134.2755126953125 185 201 217
1543 105 1135.2752685546875 180 191 209
1544 105 1136.2750244140625 182 195 212
1545 105 1137.2747802734375 178 194 209
1546 105 1138.2745361328125 173 184 202
1614 105 1184.186279296875 173 179 205
1615 105 1185.18603515625 180 186 212
1616 105 1186.1859130859375 180 190 215
1617 105 1187.185791015625 187 198 220
1620 105 1188.185546875 176 188 210
1621 105 1189.1854248046875 187 202 221
1622 105 1190.185302734375 181 198 216
1626 105 1192.1849365234375 181 197 213
1627 105 1193.184814453125 188 204 220
1675 105 1226.132080078125 177 188 210
1676 105 1227.132080078125 176 188 210
1677 105 1228.1319580078125 188 203 222
1678 105 1229.1318359375 187 206 221
1682 105 1231.131591796875 173 190 208
1683 105 1232.1314697265625 183 202 219
1684 105 1233.13134765625 181 203 217
1685 105 1234.1312255859375 174 196 210
1731 105 1265.1011962890625 159 177 201
1774 105 1296.0755615234375 183 201 221
1830 105 1336.0452880859375 153 169 194
1831 105 1337.0452880859375 151 168 194
1839 105 1342.0450439453125 166 191 211
1840 105 1343.0450439453125 160 182 205
1841 105 1344.0450439453125 160 182 205
1842 105 1345.044921875 160 185 207
1899 105 1385.0230712890625 150 165 194
1900 105 1386.0230712890625 148 165 191
1901 105 1387.0230712890625 157 177 201
1902 105 1388.0230712890625 149 169 193
699 106 703.31005859375 108 114 114
749 106 718.4100341796875 139 148 163
817 106 742.4318237304688 142 150 169
845 106 753.0504760742188 141 149 168
955 106 799.8112182617188 159 165 187
958 106 800.8077392578125 163 171 192
959 106 801.80419921875 171 179 198
962 106 801.80419921875 173 180 199
963 106 802.8007202148438 169 176 195
995 106 817.509033203125 162 175 192
996 106 818.5059814453125 171 182 200
1042 106 840.1452026367188 157 168 188
1047 106 843.1375732421875 166 177 197
1048 106 844.1350708007812 178 189 207
1075 106 855.9000854492188 163 176 195
1076 106 856.8978881835938 166 177 195
1077 106 857.8956909179688 159 170 188
1111 106 875.6666259765625 169 177 200
1112 106 876.6646728515625 169 180 200
1115 106 876.6646728515625 176 184 205
1116 106 877.6627807617188 182 193 211
1117 106 878.660888671875 183 194 212
1170 106 907.378662109375 168 174 198
1171 106 908.3771362304688 181 189 212
1172 106 909.3756103515625 178 189 209
1175 106 910.3740844726562 188 199 219
1176 106 911.3726196289062 191 202 220
1208 106 928.1907348632812 166 174 197
1209 106 929.189453125 159 165 191
1219 106 935.1818237304688 178 186 207
1313 106 989.80859375 163 169 191
1314 106 990.8077392578125 187 195 214
1318 106 992.80615234375 178 186 207
1476 106 1092.385009765625 177 183 205
1481 106 1095.3839111328125 191 199 218
1482 106 1096.383544921875 186 198 214
1483 106 1097.38330078125 185 197 213
1488 106 1099.382568359375 188 197 214
1489 106 1100.3822021484375 171 178 197
1490 106 1101.3818359375 181 181 205
1532 106 1129.29931640625 190 202 218
1533 106 1130.299072265625 191 203 219
1537 106 1132.298583984375 183 194 212
1538 106 1133.29833984375 183 199 214
1539 106 1134.2979736328125 180 198 212
1540 106 1135.2977294921875 173 189 205
1543 106 1135.2977294921875 171 177 199
1614 106 1184.204345703125 178 189 211
1615 106 1185.2042236328125 190 203 222
1616 106 1186.2039794921875 190 207 223
1617 106 1187.203857421875 187 204 220
1620 106 1188.2037353515625 179 194 213
1621 106 1189.2034912109375 189 204 223
1622 106 1190.203369140625 178 193 212
1675 106 1226.147216796875 176 192 208
1676 106 1227.1470947265625 179 195 211
1677 106 1228.14697265625 191 208 224
1678 106 1229.1468505859375 183 202 216
1683 106 1232.146484375 174 189 208
1684 106 1233.1463623046875 173 190 208
1823 106 1331.0540771484375 164 178 205
1824 106 1332.0540771484375 150 166 192
1830 106 1336.0538330078125 165 190 210
1831 106 1337.0538330078125 161 186 206
1893 106 1382.029296875 154 172 196
1894 106 1383.029296875 143 163 187
1899 106 1385.029296875 164 184 209
1900 106 1386.0291748046875 172 194 215
1901 106 1387.0291748046875 167 189 210
1902 106 1388.0291748046875 158 184 201
1903 106 1389.0291748046875 153 179 196
697 107 701.4627685546875 82 90 92
706 107 705.1595458984375 117 127 136
768 107 725.117919921875 138 149 167
952 107 798.8992309570312 162 170 191
954 107 798.8992309570312 160 168 189
955 107 799.8956298828125 168 174 196
958 107 800.8920288085938 171 179 200
959 107 801.8883666992188 176 184 203
1041 107 839.2198486328125 174 185 205
1042 107 840.2172241210938 164 177 196
1043 107 841.214599609375 172 185 204
1071 107 854.9696044921875 170 178 199
1072 107 855.96728515625 164 172 191
1075 107 855.96728515625 179 192 211
1076 107 856.9649658203125 181 192 210
1077 107 857.9627075195312 179 190 208
1107 107 873.7327880859375 165 176 196
1108 107 874.7308349609375 167 175 196
1111 107 875.7288208007812 178 189 211
1112 107 876.7268676757812 179 190 210
1113 107 877.7249145507812 173 184 204
1115 107 876.7268676757812 181 192 212
1116 107 877.7249145507812 185 196 214
1117 107 878.7229614257812 187 200 217
1170 107 907.4342651367188 174 182 205
1171 107 908.4327392578125 190 198 219
1172 107 909.43115234375 186 197 215
1206 107 926.2445678710938 179 190 210
1207 107 927.2432250976562 184 195 215
1208 107 928.2418823242188 169 177 200
1209 107 929.2405395507812 171 179 202
1313 107 989.8494873046875 182 188 210
1475 107 1091.412353515625 187 193 215
1476 107 1092.4119873046875 185 194 211
1477 107 1093.41162109375 186 195 212
1481 107 1095.410888671875 189 197 216
1482 107 1096.4105224609375 189 201 217
1483 107 1097.41015625 177 186 203
1525 107 1124.32421875 179 181 206
1526 107 1125.323974609375 193 199 221
1527 107 1126.3236083984375 190 198 217
1528 107 1127.3233642578125 188 196 215
1531 107 1128.3231201171875 186 194 213
1532 107 1129.32275390625 190 203 219
1533 107 1130.322509765625 187 201 214
1534 107 1131.322265625 174 186 202
1614 107 1184.223388671875 187 200 219
1615 107 1185.22314453125 186 202 218
1616 107 1186.2230224609375 184 201 217
1617 107 1187.2227783203125 173 189 204
1676 107 1227.1629638671875 181 197 213
1677 107 1228.162841796875 179 195 211
1754 107 1281.0999755859375 166 178 204
1755 107 1282.099853515625 169 183 209
1756 107 1283.0997314453125 168 186 210
1757 107 1284.0997314453125 164 185 206
1815 107 1325.063720703125 160 176 201
1816 107 1326.063720703125 156 172 197
1817 107 1327.063720703125 169 183 209
1823 107 1331.0634765625 175 191 216
1824 107 1332.0634765625 179 195 220
1831 107 1337.063232421875 164 191 208
1884 107 1375.036376953125 155 169 195
1886 107 1377.0362548828125 157 171 198
1892 107 1381.0362548828125 155 175 199
1893 107 1382.0361328125 154 174 198
1894 107 1383.0361328125 154 179 201
1895 107 1384.0361328125 154 179 201
1899 107 1385.0361328125 158 180 203
1900 107 1386.0361328125 160 182 203
1901 107 1387.0360107421875 161 187 204
1902 107 1388.0360107421875 164 190 207
696 108 700.6083374023438 66 74 76
698 108 702.3190307617188 90 96 96
699 108 703.31005859375 104 108 109
700 108 704.3010864257812 106 110 113
701 108 705.2921142578125 109 114 117
769 108 726.22998046875 138 149 167
950 108 796.9924926757812 160 171 189
951 108 797.9887084960938 165 176 194
952 108 798.9849853515625 165 176 194
955 108 799.9812622070312 184 192 211
981 108 811.687744140625 163 171 192
985 108 812.6844482421875 163 171 190
986 108 813.68115234375 160 168 187
1032 108 835.3041381835938 167 175 196
1033 108 836.3013916015625 162 170 191
1042 108 840.2904052734375 169 182 201
1067 108 853.0427856445312 172 183 203
1068 108 854.0404052734375 170 178 199
1071 108 855.0380249023438 176 187 207
1072 108 856.03564453125 179 190 208
1073 108 857.0332641601562 167 178 196
1075 108 856.03564453125 177 190 207
1076 108 857.0332641601562 187 199 215
1077 108 858.0308837890625 179 191 207
1103 108 871.8004150390625 160 168 191
1104 108 872.7984008789062 167 175 196
1107 108 873.7963256835938 169 182 199
1108 108 874.7942504882812 180 191 209
1112 108 876.7901611328125 191 204 221
1199 108 924.2997436523438 166 172 194
1203 108 926.2969360351562 180 191 211
1206 108 926.2969360351562 188 201 218
1207 108 927.2955322265625 191 207 222
1208 108 928.2941284179688 180 193 210
1209 108 929.292724609375 168 179 197
1475 108 1091.4403076171875 192 204 220
1476 108 1092.43994140625 191 205 216
1525 108 1124.3487548828125 185 190 210
1526 108 1125.348388671875 188 197 214
1527 108 1126.3480224609375 189 201 215
1528 108 1127.3477783203125 187 199 213
1531 108 1128.347412109375 184 191 210
1532 108 1129.34716796875 192 201 218
1597 108 1172.2457275390625 176 181 203
1598 108 1173.2454833984375 184 190 212
1652 108 1210.1822509765625 174 185 207
1653 108 1211.1820068359375 174 185 207
1747 108 1277.1131591796875 160 172 196
1754 108 1281.11279296875 175 193 215
1755 108 1282.1126708984375 180 201 220
1814 108 1324.073974609375 157 173 198
1815 108 1325.073974609375 166 184 208
1816 108 1326.0738525390625 171 193 214
1817 108 1327.0738525390625 165 187 208
1818 108 1328.0738525390625 167 187 211
1822 108 1330.07373046875 178 196 218
1823 108 1331.0736083984375 180 198 218
1824 108 1332.0736083984375 185 202 222
1830 108 1336.0733642578125 167 193 210
1884 108 1375.0439453125 150 168 192
1885 108 1376.0439453125 148 166 190
1886 108 1377.0439453125 159 179 203
1887 108 1378.0439453125 165 187 210
1888 108 1379.0438232421875 159 186 205
1892 108 1381.0438232421875 164 186 207
1893 108 1382.0438232421875 167 192 212
1894 108 1383.043701171875 165 192 211
1895 108 1384.043701171875 161 188 207
1899 108 1385.043701171875 158 180 203
1901 108 1387.0435791015625 161 182 201
697 109 701.4627685546875 84 89 92
698 109 702.4535522460938 91 95 96
699 109 703.4443969726562 105 109 110
700 109 704.4352416992188 107 111 114
769 109 726.3504638671875 140 151 169
837 109 750.3845825195312 148 155 174
951 109 798.0758056640625 168 179 197
952 109 799.0719604492188 170 181 199
981 109 811.7696533203125 168 176 197
985 109 812.7662353515625 174 182 201
986 109 813.7628784179688 161 172 190
1032 109 835.3789672851562 174 182 203
1033 109 836.3760986328125 177 185 206
1067 109 853.112548828125 172 183 203
1068 109 854.1100463867188 176 184 205
1071 109 855.1076049804688 189 200 220
1072 109 856.1051635742188 189 200 218
1073 109 857.1026611328125 173 184 202
1102 109 870.8673706054688 156 164 187
1103 109 871.865234375 168 176 199
1104 109 872.8630981445312 187 195 216
1107 109 873.8609619140625 172 185 202
1108 109 874.8588256835938 186 199 216
1109 109 875.8567504882812 179 192 209
1197 109 922.356201171875 177 183 207
1198 109 923.354736328125 181 187 211
1199 109 924.353271484375 170 176 200
1202 109 925.351806640625 187 195 214
1203 109 926.350341796875 184 195 213
1206 109 926.350341796875 185 198 215
1358 109 1017.7474975585938 182 190 211
1359 109 1018.7467651367188 183 191 210
1475 109 1091.46923828125 196 205 222
1525 109 1124.3740234375 185 192 211
1526 109 1125.3736572265625 191 200 215
1527 109 1126.3734130859375 185 197 211
1528 109 1127.373046875 174 181 197
1591 109 1169.267333984375 179 185 209
1592 109 1170.26708984375 171 176 198
1596 109 1171.266845703125 172 176 201
1597 109 1172.2666015625 191 197 219
1598 109 1173.266357421875 190 201 221
1599 109 1174.26611328125 185 196 216
1651 109 1209.2001953125 170 181 203
1652 109 1210.199951171875 178 189 211
1653 109 1211.1998291015625 180 195 214
1654 109 1212.19970703125 180 197 215
1740 109 1272.1273193359375 164 173 202
1754 109 1281.12646484375 171 192 211
1814 109 1324.0849609375 167 185 209
1815 109 1325.0849609375 173 194 215
1816 109 1326.0848388671875 171 197 214
1817 109 1327.084716796875 171 198 215
1822 109 1330.0845947265625 176 194 216
1823 109 1331.08447265625 181 199 219
1885 109 1376.0523681640625 169 191 212
1886 109 1377.05224609375 172 197 217
1887 109 1378.05224609375 175 202 219
1888 109 1379.05224609375 164 193 209
1892 109 1381.0521240234375 158 180 203
1893 109 1382.0521240234375 165 187 208
696 110 700.6083374023438 72 80 82
697 110 701.598876953125 83 89 89
698 110 702.5894775390625 95 96 98
699 110 703.5801391601562 105 106 108
700 110 704.57080078125 113 114 116
977 110 809.85986328125 162 170 191
981 110 811.8528442382812 173 184 202
1033 110 836.4520263671875 181 189 208
1067 110 853.1834716796875 176 187 207
1068 110 854.180908203125 186 194 215
1103 110 871.9312133789062 176 187 207
1107 110 873.9267578125 167 178 198
1153 110 897.625732421875 170 177 203
1154 110 898.6239624023438 177 185 206
1155 110 899.6221313476562 176 184 205
1197 110 922.4109497070312 191 199 222
1198 110 923.409423828125 192 199 218
1199 110 924.4078979492188 181 188 207
1202 110 925.4063720703125 191 199 218
1294 110 977.9902954101562 173 179 203
1296 110 979.98828125 174 180 204
1510 110 1114.4039306640625 187 194 213
1511 110 1115.403564453125 189 196 215
1590 110 1168.289306640625 169 177 200
1591 110 1169.2890625 184 195 215
1592 110 1170.288818359375 184 195 213
1596 110 1171.28857421875 181 194 211
1597 110 1172.288330078125 190 206 221
1598 110 1173.2880859375 187 203 218
1599 110 1174.287841796875 172 188 203
1651 110 1209.21875 173 188 207
1652 110 1210.2186279296875 182 197 216
1653 110 1211.2183837890625 183 202 217
1654 110 1212.21826171875 175 198 212
1740 110 1272.141845703125 161 175 201
1797 110 1312.0975341796875 157 169 195
1815 110 1325.0965576171875 175 198 216
1816 110 1326.0965576171875 171 197 214
1884 110 1375.0614013671875 155 180 200
1885 110 1376.0614013671875 166 191 211
1886 110 1377.0614013671875 178 205 222
1887 110 1378.061279296875 172 199 216
1888 110 1379.061279296875 163 192 208
696 111 700.7460327148438 71 79 81
698 111 702.726806640625 98 99 101
798 111 736.0414428710938 133 144 162
941 111 793.2742309570312 168 176 197
972 111 806.9553833007812 156 164 185
973 111 807.9517211914062 173 181 202
1067 111 853.2555541992188 175 186 206
1091 111 865.0144653320312 173 184 202
1092 111 866.0121459960938 177 185 206
1103 111 871.998291015625 174 185 205
1153 111 897.6864624023438 175 182 208
1154 111 898.6845703125 190 201 221
1155 111 899.6827392578125 184 195 213
1197 111 922.466796875 187 195 218
1290 111 977.036865234375 180 186 208
1291 111 978.0357666015625 171 179 200
1454 111 1077.5364990234375 184 190 212
1455 111 1078.5360107421875 182 188 210
1456 111 1079.5355224609375 185 190 212
1509 111 1113.431640625 189 194 214
1510 111 1114.4312744140625 192 201 218
1511 111 1115.430908203125 184 193 210
1584 111 1164.3131103515625 177 183 207
1585 111 1165.3128662109375 184 192 215
1586 111 1166.3126220703125 182 193 213
1590 111 1168.31201171875 179 192 211
1591 111 1169.311767578125 183 196 215
1592 111 1170.3115234375 191 204 221
1596 111 1171.311279296875 188 201 218
1597 111 1172.3109130859375 184 200 215
1598 111 1173.3106689453125 179 195 210
1599 111 1174.3104248046875 170 183 199
1651 111 1209.2381591796875 178 193 212
1652 111 1210.238037109375 187 204 220
1653 111 1211.23779296875 183 202 217
1654 111 1212.237548828125 166 188 202
1729 111 1263.1583251953125 164 174 201
1730 111 1264.158203125 168 178 203
1731 111 1265.1580810546875 167 179 203
1732 111 1266.157958984375 168 180 204
1740 111 1272.1572265625 171 187 210
1795 111 1310.1103515625 159 171 197
1796 111 1311.1102294921875 164 175 203
1797 111 1312.110107421875 165 179 205
941 112 793.3656005859375 177 185 204
973 112 808.0377197265625 170 178 197
1017 112 827.6358032226562 161 169 192
1018 112 828.6326293945312 156 167 187
1052 112 845.350830078125 168 176 195
1053 112 846.3480224609375 165 173 192
1091 112 865.083251953125 178 189 209
1092 112 866.080810546875 175 186 204
1093 112 867.0784301757812 173 184 202
1143 112 892.758056640625 162 173 195
1153 112 897.748291015625 182 190 213
1289 112 976.0845336914062 177 185 206
1290 112 977.0834350585938 184 195 213
1291 112 978.0823364257812 184 195 213
1448 112 1074.5701904296875 178 184 206
1449 112 1075.569580078125 175 183 202
1450 112 1076.569091796875 180 186 208
1453 112 1076.569091796875 178 189 207
1454 112 1077.568603515625 185 203 217
1455 112 1078.5679931640625 182 200 214
1456 112 1079.5675048828125 178 189 207
1503 112 1110.461181640625 190 197 215
1504 112 1111.460693359375 194 203 218
1509 112 1113.4599609375 198 205 224
1510 112 1114.45947265625 195 204 219
1511 112 1115.4591064453125 188 197 212
1577 112 1159.338134765625 175 180 202
1578 112 1160.337890625 181 187 209
1579 112 1161.337646484375 187 194 213
1580 112 1162.3372802734375 191 199 218
1584 112 1164.336669921875 178 189 207
1585 112 1165.33642578125 186 199 216
1586 112 1166.336181640625 189 205 220
1590 112 1168.3355712890625 179 195 211
1591 112 1169.3353271484375 184 200 216
1592 112 1170.3349609375 178 191 207
1634 112 1197.260986328125 175 182 208
1635 112 1198.2608642578125 174 185 207
1636 112 1199.2606201171875 176 187 209
1723 112 1260.175048828125 158 168 193
1728 112 1262.1746826171875 172 182 209
1729 112 1263.174560546875 179 191 215
1730 112 1264.1744384765625 183 198 219
1731 112 1265.17431640625 176 193 211
1788 112 1306.1240234375 164 178 204
1789 112 1307.1239013671875 165 179 205
1794 112 1309.123779296875 170 185 208
1795 112 1310.1236572265625 174 190 213
1796 112 1311.12353515625 176 194 214
1797 112 1312.1234130859375 172 193 212
1798 112 1313.1234130859375 170 196 213
1856 112 1354.0831298828125 151 165 194
1857 112 1355.0830078125 147 162 191
1858 112 1356.0830078125 149 166 194
1859 112 1357.0828857421875 141 158 186
749 113 718.9110107421875 126 138 154
1013 113 826.7194213867188 156 164 187
1014 113 827.7161254882812 161 169 192
1017 113 827.7161254882812 170 181 203
1018 113 828.7128295898438 173 184 204
1019 113 829.7095947265625 166 177 197
1051 113 844.4287719726562 167 175 196
1052 113 845.4259033203125 175 183 202
1053 113 846.4230346679688 175 183 202
1091 113 865.1531372070312 182 193 213
1092 113 866.1506958007812 186 197 215
1093 113 867.148193359375 179 190 208
1142 113 891.8234252929688 165 176 198
1143 113 892.8213500976562 165 176 198
1180 113 912.5990600585938 176 182 204
1181 113 913.5972900390625 178 186 207
1283 113 972.1368408203125 167 175 198
1284 113 973.1356811523438 166 174 195
1444 113 1072.604248046875 177 184 203
1448 113 1074.6031494140625 186 194 213
1449 113 1075.6026611328125 184 195 213
1450 113 1076.60205078125 185 196 214
1453 113 1076.60205078125 183 194 212
1454 113 1077.6015625 179 198 212
1455 113 1078.6009521484375 173 193 204
1456 113 1079.600341796875 173 186 203
1498 113 1107.4918212890625 196 205 222
1503 113 1110.490478515625 192 199 217
1504 113 1111.489990234375 196 208 222
1505 113 1112.489501953125 194 203 218
1509 113 1113.4891357421875 188 195 214
1510 113 1114.4886474609375 186 195 210
1577 113 1159.36279296875 173 179 201
1578 113 1160.3624267578125 182 190 209
1579 113 1161.3621826171875 186 198 214
1580 113 1162.36181640625 192 205 221
1584 113 1164.3612060546875 182 195 211
1585 113 1165.36083984375 185 201 216
1586 113 1166.360595703125 195 208 224
1590 113 1168.3599853515625 182 195 212
1629 113 1195.2828369140625 184 181 210
1633 113 1196.2825927734375 181 187 213
1634 113 1197.2823486328125 186 197 219
1635 113 1198.2821044921875 190 203 222
1636 113 1199.2818603515625 180 195 214
1721 113 1258.1923828125 174 181 209
1722 113 1259.1922607421875 172 182 207
1723 113 1260.1920166015625 170 180 205
1728 113 1262.1917724609375 179 191 213
1729 113 1263.191650390625 190 205 224
1731 113 1265.1912841796875 182 201 216
1782 113 1302.138671875 156 170 196
1783 113 1303.1385498046875 155 169 195
1788 113 1306.13818359375 162 176 202
1789 113 1307.1380615234375 171 186 209
1790 113 1308.137939453125 182 194 218
1794 113 1309.137939453125 173 190 210
1795 113 1310.1378173828125 172 190 210
1796 113 1311.1376953125 180 201 218
1797 113 1312.1375732421875 173 196 212
1851 113 1352.0947265625 164 175 203
1856 113 1354.094482421875 154 170 196
1857 113 1355.094482421875 159 176 204
1858 113 1356.0943603515625 158 175 201
1859 113 1357.0943603515625 169 189 214
1860 113 1358.09423828125 171 188 214
696 114 701.0256958007812 71 76 79
697 114 702.0156860351562 90 94 97
817 114 742.9939575195312 149 157 176
818 114 743.9872436523438 141 152 170
928 114 787.5792236328125 156 164 183
962 114 802.2374877929688 165 176 194
963 114 803.2334594726562 170 181 199
1009 114 824.807861328125 166 174 197
1010 114 825.804443359375 166 172 194
1011 114 826.8010864257812 165 171 193
1013 114 826.8010864257812 172 180 201
1014 114 827.7976684570312 172 180 201
1017 114 827.7976684570312 168 179 199
1047 114 843.5081787109375 166 177 197
1048 114 844.5051879882812 178 189 207
1052 114 845.502197265625 179 190 208
1053 114 846.499267578125 182 193 211
1091 114 865.2242431640625 172 183 203
1136 114 888.894287109375 164 172 193
1137 114 889.8921508789062 174 182 203
1138 114 890.8900146484375 172 180 201
1141 114 890.8900146484375 185 196 216
1142 114 891.8878784179688 174 185 205
1143 114 892.8857421875 166 177 197
1176 114 911.6605834960938 179 187 208
1179 114 911.6605834960938 180 186 208
1180 114 912.6587524414062 191 199 218
1181 114 913.6569213867188 186 197 215
1442 114 1070.6395263671875 184 191 210
1443 114 1071.638916015625 194 203 220
1444 114 1072.6383056640625 193 206 222
1448 114 1074.63720703125 189 205 220
1449 114 1075.6365966796875 190 208 220
1450 114 1076.635986328125 185 198 214
1453 114 1076.635986328125 179 187 208
1497 114 1106.5224609375 185 192 211
1504 114 1111.5201416015625 185 192 210
1577 114 1159.38818359375 166 179 198
1578 114 1160.3878173828125 181 194 211
1579 114 1161.3875732421875 191 204 220
1580 114 1162.38720703125 189 205 218
1585 114 1165.38623046875 181 192 210
1586 114 1166.3858642578125 169 177 198
1627 114 1193.3055419921875 173 177 204
1628 114 1194.3052978515625 182 186 211
1629 114 1195.304931640625 189 193 218
1633 114 1196.3046875 190 201 223
1634 114 1197.304443359375 187 202 221
1635 114 1198.30419921875 185 202 218
1636 114 1199.303955078125 172 189 205
1715 114 1254.2109375 167 179 205
1716 114 1255.210693359375 174 186 210
1717 114 1256.2105712890625 166 178 200
1721 114 1258.210205078125 173 185 207
1722 114 1259.2100830078125 187 202 221
1723 114 1260.2099609375 193 209 225
1724 114 1261.209716796875 191 207 223
1781 114 1301.1536865234375 167 181 207
1782 114 1302.153564453125 174 190 215
1788 114 1306.153076171875 182 200 220
1789 114 1307.1529541015625 195 214 231
1790 114 1308.1529541015625 187 204 222
1794 114 1309.15283203125 175 192 212
1795 114 1310.1527099609375 180 198 218
1796 114 1311.152587890625 173 194 211
1850 114 1351.10693359375 160 176 201
1851 114 1352.10693359375 163 181 205
1856 114 1354.106689453125 158 175 201
1857 114 1355.106689453125 161 178 204
1858 114 1356.1065673828125 163 183 207
1859 114 1357.1064453125 169 191 214
1860 114 1358.1064453125 164 184 208
920 115 784.6890869140625 153 164 182
924 115 786.6797485351562 156 167 187
928 115 787.675048828125 165 176 194
959 115 802.327880859375 173 181 202
962 115 802.327880859375 172 183 201
963 115 803.32373046875 171 182 200
1009 115 824.8909301757812 167 175 196
1010 115 825.8873901367188 176 184 205
1011 115 826.8839111328125 168 176 197
1014 115 827.8804321289062 179 190 208
1042 115 840.5950317382812 161 169 190
1043 115 841.5919189453125 163 171 192
1048 115 844.582763671875 177 188 206
1049 115 845.5797119140625 179 192 209
1076 115 857.3179321289062 169 177 198
1077 115 858.315185546875 158 166 187
1133 115 887.9622802734375 178 189 209
1134 115 888.9600830078125 164 175 195
1136 115 888.9600830078125 172 180 203
1137 115 889.9578857421875 183 194 214
1138 115 890.9556884765625 189 197 218
1171 115 908.7271118164062 175 183 204
1172 115 909.7252197265625 172 180 201
1175 115 910.7233276367188 185 193 214
1176 115 911.721435546875 188 196 215
1177 115 912.7195434570312 181 189 208
1179 115 911.721435546875 177 185 206
1180 115 912.7195434570312 194 202 221
1181 115 913.7176513671875 185 197 213
1442 115 1070.674560546875 193 200 218
1443 115 1071.6739501953125 201 213 229
1444 115 1072.67333984375 186 199 215
1448 115 1074.6719970703125 182 198 213
1449 115 1075.67138671875 181 199 211
1489 115 1100.556640625 188 193 213
1490 115 1101.55615234375 183 183 207
1497 115 1106.5537109375 181 188 207
1498 115 1107.5531005859375 190 202 216
1499 115 1108.5526123046875 177 191 202
1561 115 1148.41845703125 172 172 196
1562 115 1149.4180908203125 178 180 203
1563 115 1150.417724609375 174 176 199
1576 115 1158.4149169921875 175 188 205
1578 115 1160.4141845703125 183 196 213
1579 115 1161.413818359375 182 195 211
1617 115 1187.3302001953125 170 178 199
1621 115 1189.32958984375 178 184 208
1622 115 1190.329345703125 182 190 213
1623 115 1191.3291015625 185 196 218
1627 115 1193.3284912109375 186 194 217
1628 115 1194.3282470703125 192 200 221
1629 115 1195.3280029296875 176 187 207
1633 115 1196.3277587890625 190 203 222
1634 115 1197.327392578125 180 196 212
1635 115 1198.3271484375 175 192 208
1715 115 1254.2296142578125 182 194 218
1717 115 1256.229248046875 186 203 221
1773 115 1295.1702880859375 157 168 196
1774 115 1296.170166015625 163 174 202
1775 115 1297.1700439453125 174 183 212
1776 115 1298.169921875 178 190 216
1777 115 1299.169677734375 177 189 215
1781 115 1301.16943359375 179 195 218
1782 115 1302.1693115234375 180 198 220
1783 115 1303.169189453125 181 199 219
1787 115 1305.1689453125 181 197 220
1788 115 1306.1688232421875 180 198 218
1789 115 1307.168701171875 185 204 221
1840 115 1343.12060546875 154 170 195
1841 115 1344.1204833984375 152 168 194
1842 115 1345.1204833984375 156 173 199
1843 115 1346.120361328125 162 180 204
1850 115 1351.119873046875 167 187 211
1851 115 1352.119873046875 174 196 217
1856 115 1354.11962890625 170 187 213
1857 115 1355.1195068359375 171 189 213
1858 115 1356.1195068359375 169 189 213
1859 115 1357.119384765625 169 191 212
920 116 784.78662109375 162 173 191
951 116 798.4365844726562 155 163 184
955 116 800.4280395507812 173 184 202
956 116 801.4237060546875 172 183 201
959 116 802.4194946289062 177 188 206
1009 116 824.9751586914062 166 177 195
1010 116 825.9715576171875 174 185 203
1011 116 826.9679565429688 167 178 196
1037 116 838.6804809570312 172 183 203
1041 116 839.6773071289062 181 192 210
1042 116 840.6741333007812 165 176 196
1043 116 841.6709594726562 161 172 192
1073 116 857.3919677734375 165 176 196
1075 116 856.394775390625 171 182 202
1076 116 857.3919677734375 174 182 201
1077 116 858.38916015625 168 176 195
1128 116 885.0361328125 171 182 202
1129 116 886.0338745117188 173 184 204
1130 116 887.0315551757812 165 176 198
1132 116 887.0315551757812 172 183 203
1133 116 888.029296875 189 202 219
1134 116 889.0269775390625 187 200 217
1136 116 889.0269775390625 171 182 202
1137 116 890.0247192382812 184 197 216
1170 116 907.791259765625 168 179 199
1171 116 908.789306640625 182 193 213
1172 116 909.787353515625 184 195 215
1175 116 910.785400390625 190 198 219
1176 116 911.783447265625 192 204 220
1272 116 966.2944946289062 187 195 214
1442 116 1070.7105712890625 191 198 216
1443 116 1071.7098388671875 192 201 218
1482 116 1096.591064453125 189 196 214
1483 116 1097.590576171875 188 195 213
1488 116 1099.5894775390625 192 201 218
1489 116 1100.5889892578125 183 190 208
1491 116 1102.587890625 187 187 211
1561 116 1148.4459228515625 180 185 205
1562 116 1149.445556640625 191 200 217
1563 116 1150.4451904296875 188 197 214
1614 116 1184.3551025390625 168 174 198
1615 116 1185.3548583984375 171 179 200
1616 116 1186.3544921875 175 186 206
1617 116 1187.354248046875 179 190 210
1621 116 1189.3536376953125 183 194 214
1622 116 1190.353271484375 179 197 211
1623 116 1191.35302734375 181 200 214
1626 116 1192.3526611328125 178 189 209
1627 116 1193.3524169921875 193 204 224
1628 116 1194.3521728515625 182 195 214
1716 116 1255.2490234375 183 200 216
1773 116 1295.1868896484375 159 175 200
1774 116 1296.186767578125 171 187 212
1775 116 1297.1865234375 180 196 219
1776 116 1298.1864013671875 183 201 221
1777 116 1299.186279296875 171 189 209
1781 116 1301.18603515625 177 195 215
1782 116 1302.1859130859375 177 198 215
1783 116 1303.1856689453125 181 200 217
1839 116 1342.134521484375 159 180 201
1840 116 1343.1343994140625 159 179 203
1841 116 1344.13427734375 150 170 194
1842 116 1345.1341552734375 160 180 204
1843 116 1346.1341552734375 164 186 209
1844 116 1347.134033203125 165 190 210
1849 116 1350.1336669921875 164 184 208
1850 116 1351.133544921875 170 192 213
1851 116 1352.133544921875 167 193 210
1857 116 1355.1331787109375 160 178 202
697 117 702.3004760742188 92 97 100
806 117 739.3760986328125 143 151 170
920 117 784.8853149414062 165 176 194
951 117 798.5299072265625 161 169 190
952 117 799.5255126953125 164 175 193
956 117 801.5166625976562 175 188 205
1033 117 836.767578125 159 170 190
1042 117 840.75439453125 175 186 206
1043 117 841.7511596679688 161 172 192
1071 117 855.4729614257812 172 183 203
1072 117 856.4700927734375 179 190 210
1073 117 857.4672241210938 172 183 203
1075 117 856.4700927734375 174 185 203
1076 117 857.4672241210938 186 194 213
1077 117 858.46435546875 181 189 208
1128 117 885.1044921875 183 194 214
1129 117 886.1021118164062 185 196 216
1130 117 887.0997924804688 173 184 204
1132 117 887.0997924804688 174 185 205
1134 117 889.0950317382812 183 196 213
1170 117 907.8546142578125 172 183 203
1171 117 908.8526000976562 182 193 213
1172 117 909.8505249023438 192 203 221
1267 117 963.3509521484375 180 186 208
1477 117 1093.6260986328125 185 192 211
1482 117 1096.6243896484375 191 200 215
1483 117 1097.623779296875 185 194 211
1488 117 1099.6226806640625 187 196 213
1560 117 1147.474609375 180 187 206
1561 117 1148.4742431640625 184 193 210
1562 117 1149.4737548828125 190 202 216
1563 117 1150.473388671875 192 204 218
1569 117 1154.4716796875 183 192 207
1614 117 1184.3800048828125 182 190 211
1615 117 1185.379638671875 183 194 214
1616 117 1186.37939453125 185 198 215
1617 117 1187.3790283203125 186 199 216
1621 117 1189.37841796875 186 199 216
1622 117 1190.3780517578125 181 201 212
1623 117 1191.3778076171875 176 196 207
1774 117 1296.2041015625 172 190 212
1775 117 1297.203857421875 173 194 213
1776 117 1298.2037353515625 181 202 219
1777 117 1299.20361328125 169 192 208
1831 117 1337.1495361328125 165 181 206
1838 117 1341.149169921875 167 188 209
1839 117 1342.1490478515625 162 184 205
1840 117 1343.14892578125 158 180 203
1841 117 1344.1488037109375 156 178 201
1842 117 1345.148681640625 162 184 207
1843 117 1346.1485595703125 166 191 213
1844 117 1347.1484375 165 192 211
1851 117 1352.14794921875 165 190 210
920 118 784.9853515625 164 177 194
952 118 799.6199340820312 166 177 195
995 118 818.1741943359375 161 172 192
996 118 819.1702880859375 158 169 189
1032 118 835.8528442382812 169 180 198
1033 118 836.8494262695312 175 186 204
1034 118 837.8460693359375 171 182 202
1067 118 853.5554809570312 171 182 202
1068 118 854.552490234375 176 187 205
1069 118 855.549560546875 172 183 201
1071 118 855.549560546875 180 193 212
1072 118 856.5465698242188 182 195 212
1073 118 857.5435791015625 166 179 196
1075 118 856.5465698242188 176 187 205
1128 118 885.1740112304688 184 195 213
1129 118 886.1715698242188 189 200 218
1421 118 1056.795654296875 183 188 208
1422 118 1057.794921875 188 197 214
1423 118 1058.7940673828125 184 193 210
1475 118 1091.66162109375 186 188 211
1476 118 1092.6610107421875 190 199 216
1477 118 1093.660400390625 193 202 217
1481 118 1095.6591796875 191 200 217
1482 118 1096.6585693359375 188 200 214
1483 118 1097.657958984375 185 194 209
1545 118 1137.50830078125 168 170 191
1560 118 1147.5037841796875 186 195 212
1561 118 1148.50341796875 186 198 214
1562 118 1149.5029296875 184 196 210
1563 118 1150.50244140625 181 190 205
1614 118 1184.40576171875 179 192 208
1615 118 1185.4053955078125 186 199 215
1616 118 1186.405029296875 191 207 222
1617 118 1187.40478515625 183 196 212
1621 118 1189.404052734375 179 190 208
1692 118 1238.29443359375 168 175 201
1757 118 1284.2242431640625 154 168 194
1823 118 1331.1656494140625 162 178 203
1830 118 1336.1650390625 169 190 211
1832 118 1338.164794921875 172 195 213
1839 118 1342.164306640625 163 190 207
1840 118 1343.1641845703125 163 185 206
1841 118 1344.1640625 161 183 206
1842 118 1345.1639404296875 157 177 202
700 119 705.2694702148438 110 114 117
798 119 736.6423950195312 140 148 167
995 119 818.2628173828125 172 183 203
996 119 819.2587890625 174 185 205
1032 119 835.9359741210938 171 182 200
1033 119 836.9324951171875 186 197 215
1034 119 837.9290161132812 175 186 206
1067 119 853.6334228515625 173 184 204
1068 119 854.6303100585938 184 195 213
1069 119 855.6272583007812 185 196 214
1115 119 877.2650756835938 165 173 196
1116 119 878.2625122070312 168 176 197
1117 119 879.2598876953125 169 177 198
1155 119 900.002197265625 167 175 196
1421 119 1056.8348388671875 191 198 217
1422 119 1057.8341064453125 194 206 222
1423 119 1058.8333740234375 188 200 216
1475 119 1091.6968994140625 194 199 219
1476 119 1092.6961669921875 200 209 224
1477 119 1093.695556640625 195 207 221
1544 119 1136.5390625 184 186 207
1545 119 1137.53857421875 177 182 202
1546 119 1138.5380859375 181 183 206
1598 119 1173.4364013671875 179 185 207
1599 119 1174.43603515625 171 179 200
1614 119 1184.432373046875 180 193 209
1615 119 1185.4320068359375 184 197 213
1690 119 1236.317138671875 174 181 207
1754 119 1281.243896484375 168 182 208
1755 119 1282.2437744140625 170 186 211
1756 119 1283.2435302734375 175 191 214
1757 119 1284.243408203125 179 195 218
1815 119 1325.1826171875 163 177 204
1816 119 1326.1824951171875 162 178 203
1817 119 1327.182373046875 157 175 199
1824 119 1332.181640625 165 183 207
1825 119 1333.1815185546875 160 180 204
1831 119 1337.1810302734375 175 198 216
1832 119 1338.180908203125 166 192 207
1839 119 1342.1802978515625 158 184 201
697 120 702.4450073242188 87 91 94
698 120 703.4344482421875 104 102 105
699 120 704.4238891601562 106 104 107
700 120 705.413330078125 114 115 119
725 120 712.9074096679688 120 128 141
907 120 779.221435546875 162 170 189
941 120 793.84130859375 166 174 193
942 120 794.8364868164062 165 173 192
986 120 814.3690795898438 151 159 180
995 120 818.3526000976562 175 186 204
996 120 819.3485107421875 170 178 197
1111 120 876.340087890625 165 172 198
1112 120 877.3374633789062 176 184 207
1113 120 878.3347778320312 171 179 202
1115 120 877.3374633789062 171 179 202
1116 120 878.3347778320312 176 184 205
1117 120 879.3321533203125 187 195 214
1153 120 898.0740356445312 173 181 204
1154 120 899.0717163085938 186 194 215
1155 120 900.0694580078125 185 193 214
1252 120 953.5302734375 165 173 194
1253 120 954.5286865234375 171 179 200
1421 120 1056.8751220703125 189 198 215
1422 120 1057.874267578125 192 206 219
1423 120 1058.8734130859375 189 203 216
1475 120 1091.7330322265625 191 193 214
1476 120 1092.7322998046875 190 197 215
1539 120 1134.5712890625 161 168 186
1540 120 1135.57080078125 175 182 201
1543 120 1135.57080078125 178 185 204
1544 120 1136.5703125 192 204 220
1545 120 1137.56982421875 188 200 214
1546 120 1138.5693359375 185 194 211
1597 120 1172.4644775390625 175 181 203
1598 120 1173.464111328125 190 202 218
1599 120 1174.4637451171875 183 195 211
1684 120 1233.3409423828125 170 177 203
1685 120 1234.3406982421875 173 183 208
1690 120 1236.3402099609375 181 196 215
1754 120 1281.2637939453125 172 193 212
1755 120 1282.263671875 179 202 220
1756 120 1283.263427734375 183 206 222
1757 120 1284.26318359375 180 203 219
1816 120 1326.199462890625 162 180 204
1817 120 1327.1993408203125 158 178 202
1818 120 1328.1990966796875 165 187 208
1823 120 1331.19873046875 177 198 219
1824 120 1332.1986083984375 174 195 216
1825 120 1333.1983642578125 169 191 212
1831 120 1337.1978759765625 173 196 214
1832 120 1338.1976318359375 164 185 204
696 121 701.6017456054688 66 69 74
697 121 702.5909423828125 87 88 92
698 121 703.5801391601562 103 101 104
699 121 704.5693969726562 112 112 114
725 121 713.0469970703125 138 146 159
899 121 776.3427124023438 148 156 175
900 121 777.3370971679688 154 162 183
903 121 778.33154296875 165 171 193
907 121 779.3259887695312 161 169 188
981 121 812.4690551757812 162 170 189
985 121 813.4647827148438 163 171 192
986 121 814.4605712890625 160 168 189
1017 121 828.1358642578125 163 174 194
1018 121 829.132080078125 170 178 199
1019 121 830.1282958984375 165 173 194
1053 121 846.8157958984375 167 175 194
1107 121 874.4192504882812 165 176 198
1108 121 875.4164428710938 171 179 202
1109 121 876.4136962890625 170 177 203
1111 121 876.4136962890625 163 170 196
1112 121 877.4109497070312 187 195 218
1113 121 878.408203125 176 184 207
1115 121 877.4109497070312 167 175 198
1116 121 878.408203125 186 194 215
1117 121 879.4054565429688 186 194 213
1153 121 898.1425170898438 173 181 204
1154 121 899.14013671875 188 196 217
1155 121 900.1377563476562 190 198 217
1247 121 951.5907592773438 168 176 199
1248 121 952.589111328125 176 187 205
1249 121 953.5874633789062 169 180 198
1406 121 1046.925048828125 180 187 206
1407 121 1047.9241943359375 176 184 203
1408 121 1048.9232177734375 178 185 204
1409 121 1049.92236328125 172 177 197
1421 121 1056.916259765625 193 200 219
1422 121 1057.9154052734375 184 196 210
1533 121 1130.6055908203125 169 175 197
1534 121 1131.6051025390625 176 183 202
1538 121 1133.60400390625 184 191 210
1539 121 1134.603515625 195 204 221
1540 121 1135.6029052734375 186 193 212
1543 121 1135.6029052734375 189 198 215
1544 121 1136.6024169921875 187 201 214
1545 121 1137.601806640625 193 207 220
1546 121 1138.601318359375 182 191 206
1587 121 1167.4952392578125 173 180 199
1591 121 1169.494384765625 183 185 210
1592 121 1170.493896484375 188 192 217
1593 121 1171.4935302734375 191 195 220
1596 121 1171.4935302734375 185 190 212
1597 121 1172.4930419921875 191 198 217
1598 121 1173.49267578125 195 207 221
1599 121 1174.4921875 186 198 212
1677 121 1228.366455078125 167 175 198
1678 121 1229.3660888671875 171 182 204
1679 121 1230.3658447265625 169 181 203
1683 121 1232.365234375 174 186 208
1684 121 1233.3648681640625 180 192 214
1685 121 1234.3646240234375 186 198 220
1689 121 1235.3642578125 182 194 216
1749 121 1279.284912109375 174 200 215
1754 121 1281.2845458984375 171 194 210
1755 121 1282.2843017578125 166 192 207
1815 121 1325.21728515625 161 179 203
1816 121 1326.2171630859375 173 193 217
1817 121 1327.217041015625 170 192 213
1823 121 1331.21630859375 175 193 215
1824 121 1332.2161865234375 176 197 218
1825 121 1333.216064453125 165 186 207
697 122 702.7382202148438 96 96 98
698 122 703.7272338867188 103 103 105
699 122 704.7162475585938 107 108 110
899 122 776.448974609375 157 165 184
900 122 777.4432373046875 163 171 190
981 122 812.56201171875 163 171 190
986 122 814.55322265625 169 177 196
987 122 815.5488891601562 172 180 199
1014 122 828.223388671875 164 170 192
1015 122 829.219482421875 160 168 189
1018 122 829.219482421875 175 186 204
1051 122 844.9047241210938 166 174 195
1052 122 845.9013061523438 184 195 213
1053 122 846.8978881835938 175 186 204
1104 122 873.4970092773438 171 182 200
1107 122 874.494140625 167 180 199
1108 122 875.4912719726562 178 189 209
1109 122 876.4884643554688 174 185 205
1142 122 892.2269897460938 167 178 198
1143 122 893.2244873046875 163 174 194
1243 122 949.652587890625 170 175 195
1244 122 950.6508178710938 174 181 200
1406 122 1046.967529296875 180 192 208
1407 122 1047.966552734375 189 201 217
1408 122 1048.9656982421875 186 195 212
1409 122 1049.9647216796875 176 183 201
1454 122 1077.818603515625 183 191 210
1455 122 1078.81787109375 184 193 210
1456 122 1079.817138671875 183 190 209
1528 122 1127.6405029296875 170 177 196
1532 122 1129.6392822265625 174 185 205
1533 122 1130.6387939453125 186 199 216
1534 122 1131.63818359375 184 200 215
1538 122 1133.6370849609375 191 203 219
1539 122 1134.636474609375 194 206 220
1540 122 1135.635986328125 187 196 213
1585 122 1165.525634765625 183 188 210
1586 122 1166.525146484375 177 184 203
1587 122 1167.5247802734375 184 192 211
1591 122 1169.5238037109375 194 202 223
1592 122 1170.5234375 196 208 224
1593 122 1171.52294921875 191 203 219
1596 122 1171.52294921875 185 192 211
1597 122 1172.5224609375 196 205 222
1598 122 1173.5220947265625 199 209 221
1599 122 1174.5216064453125 182 192 204
1676 122 1227.3916015625 171 182 204
1677 122 1228.3912353515625 179 190 210
1678 122 1229.390869140625 182 197 216
1679 122 1230.390625 183 200 216
1732 122 1266.3095703125 159 174 197
1733 122 1267.309326171875 155 170 193
1815 122 1325.23583984375 164 185 204
1816 122 1326.235595703125 174 197 215
1817 122 1327.2354736328125 174 200 217
1818 122 1328.2353515625 166 189 205
697 123 702.8869018554688 87 88 92
700 123 705.705322265625 115 119 122
899 123 776.5565185546875 162 170 189
928 123 788.1732177734375 165 173 192
929 123 789.1679077148438 161 169 188
973 123 808.6741943359375 161 168 187
974 123 809.669677734375 155 163 182
978 123 811.66064453125 160 168 187
981 123 812.6561279296875 173 181 200
1010 123 826.3201293945312 161 167 189
1011 123 827.316162109375 167 175 196
1014 123 828.3121337890625 167 175 196
1015 123 829.3081665039062 168 176 197
1018 123 829.3081665039062 178 190 206
1019 123 830.3041381835938 172 184 200
1048 123 844.9881591796875 177 185 204
1052 123 845.984619140625 182 193 211
1053 123 846.9810791015625 185 196 214
1103 123 872.5760498046875 170 178 199
1104 123 873.5731201171875 180 191 209
1107 123 874.5701904296875 169 182 199
1108 123 875.5672607421875 179 192 209
1109 123 876.5643310546875 180 191 209
1141 123 891.3007202148438 178 186 207
1142 123 892.2981567382812 178 189 209
1143 123 893.2955932617188 169 180 200
1240 123 948.7138671875 170 176 200
1242 123 948.7138671875 177 182 204
1243 123 949.7120361328125 189 194 216
1244 123 950.7102661132812 181 188 207
1400 123 1044.013916015625 193 198 218
1401 123 1045.012939453125 194 201 220
1402 123 1046.011962890625 188 193 213
1406 123 1047.010986328125 192 204 220
1407 123 1048.010009765625 188 200 216
1408 123 1049.009033203125 183 190 208
1450 123 1076.85888671875 187 192 214
1453 123 1076.85888671875 177 183 205
1454 123 1077.8580322265625 190 202 218
1455 123 1078.8572998046875 191 203 219
1456 123 1079.8564453125 180 187 205
1526 123 1125.67578125 171 176 196
1527 123 1126.6751708984375 176 183 201
1528 123 1127.674560546875 178 186 205
1532 123 1129.6734619140625 180 193 210
1533 123 1130.6728515625 186 202 217
1534 123 1131.6722412109375 184 202 214
1537 123 1132.671630859375 179 187 206
1538 123 1133.6710205078125 189 201 217
1539 123 1134.67041015625 185 197 213
1579 123 1161.5579833984375 168 172 197
1580 123 1162.5574951171875 184 186 209
1585 123 1165.5560302734375 186 193 212
1586 123 1166.5556640625 194 202 221
1587 123 1167.55517578125 193 204 222
1590 123 1168.5546875 180 188 209
1591 123 1169.55419921875 198 206 225
1592 123 1170.5537109375 195 208 224
1593 123 1171.55322265625 183 197 210
1598 123 1173.55224609375 179 187 200
1635 123 1198.482421875 170 181 201
1677 123 1228.4168701171875 188 201 220
1678 123 1229.41650390625 185 202 218
1730 123 1264.3326416015625 161 177 200
1731 123 1265.3323974609375 158 174 197
1732 123 1266.3321533203125 166 182 205
1733 123 1267.331787109375 168 184 207
1795 123 1310.2579345703125 149 163 189
1796 123 1311.2578125 154 170 195
1797 123 1312.257568359375 157 173 198
1798 123 1313.2574462890625 165 179 205
1817 123 1327.254638671875 160 181 200
1893 123 1382.175048828125 162 178 203
1895 123 1384.1748046875 144 162 184
697 124 702.8869018554688 76 81 85
779 124 730.3369140625 143 154 172
924 124 787.2820434570312 165 173 192
928 124 788.276611328125 169 177 196
929 124 789.2711791992188 162 171 188
973 124 808.7700805664062 166 172 194
974 124 809.765380859375 166 174 193
978 124 811.756103515625 177 186 203
1009 124 825.4144287109375 164 172 193
1010 124 826.4103393554688 174 182 201
1011 124 827.4061889648438 173 181 200
1014 124 828.402099609375 175 186 206
1015 124 829.39794921875 181 189 208
1042 124 841.08740234375 158 169 189
1043 124 842.083740234375 154 165 185
1048 124 845.07275390625 176 187 205
1103 124 872.6534423828125 180 191 211
1104 124 873.650390625 195 207 223
1137 124 890.3757934570312 176 184 205
1138 124 891.3731079101562 186 194 213
1142 124 892.3704223632812 187 200 217
1143 124 893.3677978515625 178 191 208
1237 124 945.7800903320312 175 180 202
1238 124 946.7781982421875 181 187 209
1244 124 950.770751953125 190 199 216
1395 124 1041.0615234375 189 194 216
1396 124 1042.0604248046875 189 197 216
1397 124 1043.0594482421875 184 192 211
1400 124 1044.0584716796875 186 198 214
1401 124 1045.057373046875 200 213 229
1402 124 1046.056396484375 193 205 221
1406 124 1047.055419921875 188 200 216
1448 124 1074.90087890625 189 198 215
1449 124 1075.900146484375 196 205 222
1450 124 1076.8992919921875 183 192 209
1453 124 1076.8992919921875 179 186 205
1454 124 1077.8984375 196 208 222
1455 124 1078.8975830078125 185 197 211
1456 124 1079.896728515625 183 190 208
1526 124 1125.7109375 189 201 215
1527 124 1126.710205078125 187 201 214
1528 124 1127.7095947265625 181 194 210
1532 124 1129.7083740234375 184 197 213
1533 124 1130.707763671875 185 201 214
1577 124 1159.5904541015625 173 179 201
1578 124 1160.5899658203125 178 184 206
1579 124 1161.5894775390625 178 186 207
1580 124 1162.5888671875 187 198 216
1581 124 1163.58837890625 192 205 221
1584 124 1164.587890625 186 198 214
1585 124 1165.58740234375 191 203 219
1586 124 1166.5869140625 191 204 220
1591 124 1169.58544921875 195 202 221
1722 124 1259.357421875 173 180 206
1723 124 1260.3570556640625 166 176 201
1730 124 1264.35595703125 171 194 212
1731 124 1265.355712890625 175 198 216
1732 124 1266.3553466796875 180 201 218
1733 124 1267.3551025390625 175 194 211
1790 124 1308.2786865234375 165 177 203
1795 124 1310.2781982421875 161 175 201
1796 124 1311.2779541015625 170 190 214
1797 124 1312.27783203125 172 194 215
1798 124 1313.277587890625 167 188 209
886 125 770.8125610351562 160 167 186
887 125 771.8063354492188 161 167 189
920 125 785.3980102539062 166 174 195
924 125 787.3868408203125 169 177 196
973 125 808.8671264648438 171 177 199
974 125 809.8623046875 176 184 203
1010 125 826.5016479492188 184 192 211
1011 125 827.4974365234375 177 185 204
1043 125 842.1697998046875 162 173 193
1048 125 845.1585693359375 174 185 203
1092 125 866.7508544921875 164 172 191
1093 125 867.7476806640625 169 177 196
1132 125 887.4575805664062 175 183 206
1133 125 888.454833984375 181 189 210
1134 125 889.4520874023438 183 191 212
1137 125 890.4493408203125 192 200 221
1138 125 891.4465942382812 183 194 212
1391 125 1039.1092529296875 185 192 211
1392 125 1040.108154296875 188 193 215
1395 125 1041.1070556640625 196 201 221
1396 125 1042.1060791015625 198 210 226
1397 125 1043.10498046875 186 198 214
1400 125 1044.1038818359375 186 198 214
1401 125 1045.1029052734375 198 210 224
1402 125 1046.101806640625 185 197 213
1442 125 1070.94580078125 182 184 205
1443 125 1071.9449462890625 191 196 215
1444 125 1072.944091796875 195 204 221
1445 125 1073.9432373046875 192 201 218
1448 125 1074.9423828125 190 199 216
1449 125 1075.94140625 190 202 218
