ply
format ascii 1.0
element vertex 1288
property float x
property float y
property float z
property float red
property float green
property float blue
end_header
1287 820 1125.04443359375 185 184 202
1288 820 1125.9173583984375 179 178 196
1289 820 1126.79052734375 170 171 189
1500 820 1245.4979248046875 183 181 203
1506 820 1249.083251953125 184 179 202
1713 820 1379.0504150390625 171 179 202
676 821 734.8911743164062 127 32 36
705 821 738.9431762695312 134 29 34
707 821 740.2681884765625 138 33 38
966 821 893.6514892578125 113 95 119
975 821 899.1607055664062 98 69 97
976 821 899.949462890625 91 65 92
1288 821 1126.4053955078125 170 167 188
1293 821 1129.0244140625 169 170 188
1297 821 1130.7713623046875 174 177 192
1298 821 1131.645263671875 164 167 184
1304 821 1134.26806640625 166 169 188
1305 821 1135.1427001953125 168 174 190
1306 821 1136.017578125 179 188 203
1506 821 1249.5263671875 183 178 201
1507 821 1250.4227294921875 179 174 197
1514 821 1254.010009765625 177 168 195
1522 821 1259.3955078125 179 180 200
1713 821 1379.453857421875 174 184 209
690 822 737.71337890625 129 24 31
921 822 864.76123046875 99 79 106
960 822 889.5684204101562 88 55 72
966 822 894.2706298828125 83 59 73
1264 822 1114.208740234375 65 61 75
1304 822 1134.7532958984375 168 164 189
1305 822 1135.6275634765625 168 164 187
1306 822 1136.5020751953125 173 171 193
1307 822 1137.3768310546875 168 166 187
1311 822 1139.1268310546875 169 170 190
1312 822 1140.002197265625 174 175 193
1316 822 1140.877685546875 188 189 207
1317 822 1141.75341796875 182 184 199
1507 822 1250.8660888671875 192 194 209
1528 822 1263.4278564453125 187 183 206
1534 822 1266.1236572265625 187 183 206
1744 822 1399.090087890625 171 182 204
1745 822 1400.0072021484375 171 182 204
1752 822 1404.59423828125 170 178 201
1753 822 1405.511962890625 160 166 192
658 823 733.4800415039062 114 29 34
663 823 733.4800415039062 118 27 32
889 823 844.86328125 105 89 115
890 823 845.6175537109375 108 90 116
897 823 850.9112548828125 106 79 98
909 823 858.5161743164062 101 74 93
910 823 859.2793579101562 99 74 95
923 823 866.937744140625 98 69 87
1316 823 1141.361083984375 185 183 204
1317 823 1142.2364501953125 180 179 197
1557 823 1280.9573974609375 179 178 196
659 824 734.8911743164062 113 28 35
857 824 826.8494262695312 106 81 103
869 824 834.2781372070312 98 73 92
872 824 836.5172119140625 92 65 84
878 824 839.5099487304688 101 74 93
879 824 840.2594604492188 97 72 91
882 824 842.5111083984375 103 80 100
894 824 849.2938232421875 95 62 79
895 824 850.0499877929688 96 64 79
898 824 852.321533203125 103 71 84
899 824 853.0797119140625 106 75 90
901 824 854.5975952148438 90 59 75
907 824 857.6392211914062 89 51 64
1335 824 1152.3583984375 175 171 194
1336 824 1153.23583984375 176 174 196
1337 824 1154.113525390625 174 172 194
1340 824 1154.9913330078125 174 172 193
1341 824 1155.869384765625 179 180 200
1342 824 1156.74755859375 170 171 191
1346 824 1157.6259765625 185 188 205
1347 824 1158.504638671875 178 181 198
1348 824 1159.3834228515625 176 177 197
1557 824 1281.391845703125 190 189 207
1569 824 1287.699462890625 181 179 201
1570 824 1288.6011962890625 172 167 190
1572 824 1290.405029296875 187 178 205
1777 824 1421.9173583984375 171 183 205
1784 824 1425.594970703125 171 186 207
1803 824 1438.4801025390625 164 174 199
660 825 736.30224609375 115 28 34
663 825 734.9863891601562 119 26 34
667 825 734.9863891601562 122 33 39
674 825 734.3296508789062 119 32 38
689 825 738.5621337890625 127 22 29
694 825 738.5621337890625 162 70 91
825 825 807.7586059570312 100 88 112
1342 825 1157.2259521484375 175 173 195
1347 825 1158.9822998046875 162 160 181
1365 825 1168.656005859375 188 191 210
1366 825 1169.53662109375 195 201 217
1787 825 1428.7467041015625 164 176 200
1811 825 1444.396728515625 170 180 207
670 826 735.7404174804688 122 30 35
671 826 736.3973388671875 121 29 34
674 826 735.0843505859375 124 38 41
1365 826 1169.1304931640625 171 167 194
1366 826 1170.0107421875 172 170 194
1367 826 1170.89111328125 164 162 184
1379 826 1177.0594482421875 181 184 201
1605 826 1312.0404052734375 181 181 205
1612 826 1316.5655517578125 176 176 200
1813 826 1446.628173828125 159 175 198
1827 826 1454.9254150390625 167 184 204
1828 826 1455.847900390625 161 176 199
1845 826 1466.925048828125 175 189 215
659 827 737.1512451171875 118 31 37
663 827 736.4950561523438 120 23 30
674 827 735.8396606445312 130 41 45
675 827 736.4950561523438 120 29 34
679 827 736.4950561523438 125 26 31
682 827 736.4950561523438 131 32 37
803 827 796.233642578125 98 75 101
816 827 802.73095703125 102 74 99
1380 827 1178.4129638671875 165 168 185
1381 827 1179.294677734375 176 179 196
1382 827 1180.1766357421875 171 174 189
1386 827 1181.941162109375 182 188 202
1387 827 1182.82373046875 180 186 200
1388 827 1183.7064208984375 183 186 203
1391 827 1184.58935546875 187 190 205
1392 827 1185.4725341796875 199 202 217
1393 827 1186.355712890625 180 183 200
1571 827 1290.8016357421875 197 205 216
1606 827 1313.3712158203125 183 179 206
1612 827 1316.990478515625 177 177 201
1617 827 1319.7064208984375 179 179 205
1624 827 1323.3294677734375 171 173 196
1848 827 1470.0792236328125 162 176 203
1849 827 1471.0030517578125 157 171 200
659 828 737.9058227539062 128 39 45
673 828 737.9058227539062 123 28 34
674 828 736.5955200195312 117 25 30
675 828 737.2503051757812 120 28 31
692 828 738.4660034179688 131 30 36
773 828 777.8804321289062 102 82 107
774 828 778.578857421875 123 104 126
775 828 779.2778930664062 121 98 124
789 828 787.0101928710938 91 65 90
791 828 788.4243774414062 83 63 88
1386 828 1182.4119873046875 185 182 203
1388 828 1184.176513671875 179 176 197
1392 828 1185.9417724609375 175 171 194
1397 828 1187.7078857421875 183 182 200
1398 828 1188.5911865234375 181 179 200
1642 828 1335.5391845703125 179 185 207
1643 828 1336.44677734375 168 174 196
668 829 738.6609497070312 125 30 36
672 829 739.3165893554688 129 30 35
676 829 738.6609497070312 128 33 37
692 829 739.2191772460938 132 31 37
755 829 767.52392578125 94 75 103
756 829 768.2109375 104 81 110
766 829 775.1180419921875 94 71 99
769 829 777.2033081054688 89 56 83
774 829 779.2945556640625 90 59 77
776 829 780.6920166015625 85 51 75
1265 829 1117.5531005859375 98 94 111
1412 829 1197.0150146484375 173 179 193
1413 829 1197.8997802734375 185 193 204
1414 829 1198.7847900390625 175 178 193
1418 829 1200.5552978515625 187 197 207
1419 829 1201.4407958984375 184 194 206
1643 829 1336.8668212890625 173 179 203
1644 829 1337.7742919921875 173 177 204
1661 829 1346.8555908203125 184 189 209
1662 829 1347.764404296875 172 177 197
1882 829 1493.959228515625 166 184 206
671 830 739.4166870117188 128 29 34
680 830 739.4166870117188 128 28 36
685 830 739.4166870117188 122 23 26
687 830 738.762451171875 123 22 28
754 830 767.5656127929688 94 65 85
757 830 769.6245727539062 96 61 85
759 830 771.0006713867188 86 52 76
760 830 771.689697265625 90 55 77
1264 830 1117.1826171875 76 69 85
1269 830 1119.78564453125 161 155 181
1270 830 1120.65380859375 172 168 191
1274 830 1121.522216796875 168 169 189
1275 830 1122.3907470703125 164 162 184
1423 830 1203.6763916015625 182 183 203
1424 830 1204.5621337890625 177 178 196
1425 830 1205.447998046875 179 177 198
1430 830 1207.2203369140625 183 182 200
1431 830 1208.1068115234375 184 183 201
1432 830 1208.993408203125 190 192 207
1661 830 1347.273193359375 185 190 210
1663 830 1349.0904541015625 169 169 195
1889 830 1498.0404052734375 170 186 209
658 831 738.762451171875 112 29 37
684 831 740.8272705078125 128 27 31
686 831 740.8272705078125 127 26 32
692 831 741.4822998046875 132 29 33
694 831 740.8272705078125 142 38 45
744 831 763.518798828125 75 47 61
1264 831 1117.6806640625 78 71 87
1265 831 1118.5477294921875 103 95 118
1273 831 1121.1502685546875 177 175 197
1288 831 1129.83984375 168 169 187
1289 831 1130.7099609375 167 168 186
1431 831 1208.56982421875 176 171 193
1432 831 1209.4560546875 172 169 188
1704 831 1375.9073486328125 167 180 199
683 832 740.9298095703125 126 25 31
684 832 741.5834350585938 127 23 30
688 832 740.9298095703125 130 25 30
696 832 742.8930053710938 135 30 37
705 832 744.2056274414062 118 36 50
718 832 749.4865112304688 101 83 109
719 832 750.1499633789062 103 88 111
721 832 751.4791870117188 99 78 95
1265 832 1119.0460205078125 110 105 127
1268 832 1119.9129638671875 179 179 203
1288 832 1130.3331298828125 185 183 205
1298 832 1135.554931640625 172 171 189
1446 832 1217.900634765625 188 183 205
1705 832 1377.2294921875 173 181 204
1706 832 1378.1414794921875 169 182 201
1712 832 1381.7908935546875 173 180 206
1713 832 1382.7034912109375 165 171 197
1714 832 1383.6163330078125 165 169 198
666 833 740.9298095703125 127 26 32
679 833 742.3402099609375 128 27 33
687 833 741.0350952148438 133 26 32
689 833 742.3402099609375 131 26 31
692 833 742.9939575195312 129 22 28
694 833 742.3402099609375 135 30 35
702 833 742.9939575195312 126 27 32
704 833 744.3037109375 121 26 34
705 833 744.959716796875 119 29 38
707 833 744.959716796875 116 40 53
708 833 745.6165161132812 116 48 63
709 833 746.2740478515625 133 70 87
711 833 747.5914916992188 93 38 57
716 833 748.911865234375 97 59 82
717 833 749.5732421875 93 61 84
718 833 750.2352905273438 73 48 69
719 833 750.8981323242188 75 51 67
722 833 752.89111328125 82 46 60
1264 833 1118.1793212890625 73 67 81
1265 833 1119.5450439453125 108 104 121
1305 833 1139.5306396484375 170 165 188
1307 833 1141.2738037109375 180 178 199
1311 833 1143.0179443359375 177 173 196
1312 833 1143.8902587890625 182 183 203
1316 833 1144.7628173828125 177 180 197
1466 833 1229.9105224609375 185 184 200
1467 833 1230.8001708984375 187 186 202
1468 833 1231.68994140625 181 178 197
1472 833 1233.4698486328125 185 191 205
1473 833 1234.360107421875 183 189 203
1479 833 1237.031982421875 191 195 207
1480 833 1237.9228515625 187 193 207
1707 833 1379.463623046875 174 189 210
1714 833 1384.02490234375 168 167 198
666 834 741.687255859375 124 21 25
673 834 742.4453125 128 23 28
683 834 742.4453125 126 23 27
684 834 743.0975952148438 127 23 30
692 834 743.7506103515625 129 22 30
695 834 743.7506103515625 136 30 34
704 834 745.05908203125 124 25 30
705 834 745.7144165039062 124 29 35
706 834 746.3705444335938 126 35 42
1121 834 1000.7137451171875 84 38 48
1307 834 1141.7640380859375 184 186 207
1472 834 1233.9259033203125 182 180 201
1473 834 1234.8157958984375 179 177 198
1480 834 1238.377197265625 177 173 196
1745 834 1403.6185302734375 173 179 203
1746 834 1404.5333251953125 168 174 200
1750 834 1406.3634033203125 172 180 201
697 835 745.8150024414062 132 26 30
705 835 746.4696655273438 128 27 33
706 835 747.1251831054688 130 33 40
709 835 747.7813720703125 116 30 43
710 835 748.4383544921875 126 43 59
1122 835 1002.102783203125 83 43 52
1335 835 1156.2188720703125 171 169 191
1336 835 1157.0933837890625 170 171 191
1337 835 1157.968017578125 177 180 199
1500 835 1250.4207763671875 185 187 200
1501 835 1251.3133544921875 184 186 201
1744 835 1403.1082763671875 181 189 212
1745 835 1404.0228271484375 185 193 216
1761 835 1414.0894775390625 165 168 199
689 836 744.614013671875 131 26 31
696 836 745.918212890625 136 27 32
705 836 747.2255249023438 137 34 38
706 836 747.8803100585938 128 27 33
710 836 749.1922607421875 128 42 53
1346 836 1161.9522705078125 173 169 194
1501 836 1251.764404296875 182 177 199
1506 836 1254.442138671875 184 179 201
1507 836 1255.3349609375 175 172 193
1513 836 1258.0146484375 178 181 196
1515 836 1259.802001953125 185 182 201
1747 836 1406.25634765625 166 177 197
1784 836 1429.154296875 164 179 200
1787 836 1431.90673828125 165 171 197
656 837 742.4453125 111 29 33
703 837 746.6759643554688 133 27 31
707 837 749.291015625 135 35 43
709 837 749.291015625 119 29 38
1130 837 1008.7308959960938 80 50 60
1523 837 1265.614501953125 193 192 206
1529 837 1269.1934814453125 187 193 207
1535 837 1271.8792724609375 186 197 203
1804 837 1443.3211669921875 164 179 200
1812 837 1448.83544921875 166 184 206
680 838 744.7227783203125 125 22 26
704 838 748.0862426757812 136 31 36
705 838 748.7389526367188 133 28 35
707 838 750.0466918945312 133 32 40
708 838 749.3923950195312 136 39 48
1113 838 997.7098999023438 75 42 59
1128 838 1007.6314086914062 83 56 73
1129 838 1008.460205078125 84 60 76
1130 838 1009.2893676757812 78 55 71
1131 838 1010.1187744140625 82 59 75
1143 838 996.8851318359375 68 50 66
1381 838 1183.0875244140625 177 172 194
1382 838 1183.9666748046875 188 185 204
1536 838 1273.219970703125 182 179 198
1786 838 1431.78564453125 178 191 210
1814 838 1451.0675048828125 161 172 200
1820 838 1454.7457275390625 167 183 206
1826 838 1457.50537109375 167 182 203
1827 838 1458.425537109375 166 178 202
787 839 792.719970703125 110 34 38
1095 839 951.830322265625 73 45 59
1096 839 952.6353149414062 71 47 63
1097 839 986.7654418945312 73 49 65
1098 839 987.58544921875 80 56 72
1099 839 988.40576171875 78 51 68
1100 839 989.2264404296875 80 52 67
1123 839 1004.0542602539062 90 71 90
1124 839 1004.881103515625 84 67 85
1125 839 1005.7081909179688 73 56 74
1127 839 1007.3634033203125 77 58 78
1128 839 1008.1914672851562 83 66 85
1129 839 1009.0198364257812 94 77 96
1130 839 1009.8485107421875 81 67 84
1131 839 1010.677490234375 86 72 89
1132 839 1011.5067749023438 85 68 84
1142 839 996.6273193359375 67 56 73
1143 839 997.4512329101562 67 56 73
1392 839 1189.7200927734375 177 178 198
1552 839 1283.5205078125 178 184 200
1553 839 1284.4173583984375 184 190 206
1554 839 1285.3143310546875 172 173 191
1558 839 1287.1087646484375 187 195 206
1559 839 1288.0062255859375 172 181 190
1564 839 1290.699462890625 191 199 212
1565 839 1291.597412109375 182 190 203
1821 839 1456.0579833984375 160 174 200
1828 839 1459.7373046875 162 171 200
1845 839 1470.78515625 163 172 201
1846 839 1471.70654296875 167 177 204
1847 839 1472.6279296875 167 179 205
1849 839 1474.4710693359375 151 167 192
691 840 746.8928833007812 129 23 27
695 840 747.5426635742188 140 31 36
712 840 752.7682495117188 130 40 49
713 840 751.457275390625 115 25 34
1095 840 952.4242553710938 71 53 69
1099 840 988.977783203125 78 61 80
1100 840 989.7979736328125 81 67 84
1101 840 990.6184692382812 86 72 89
1124 840 1005.4436645507812 81 74 90
1125 840 1006.2703247070312 75 68 84
1127 840 1007.9246215820312 72 63 82
1128 840 1008.752197265625 80 73 91
1129 840 1009.5801391601562 87 80 98
1130 840 1010.4083251953125 84 77 93
1131 840 1011.2368774414062 86 80 94
1132 840 1012.0657348632812 82 74 89
1142 840 997.194580078125 66 62 79
1143 840 998.01806640625 65 61 76
1265 840 1121.547607421875 89 80 99
1268 840 1122.41259765625 140 137 164
1269 840 1123.27783203125 157 157 181
1398 840 1192.8353271484375 181 178 199
1399 840 1193.715576171875 169 166 187
1570 840 1293.83349609375 182 185 202
1571 840 1294.731689453125 177 178 196
1572 840 1295.6300048828125 175 173 195
1847 840 1473.0166015625 164 178 204
1848 840 1473.9378662109375 160 174 200
1855 840 1478.5458984375 152 173 194
1856 840 1479.4677734375 152 168 194
705 841 750.254638671875 144 35 41
706 841 750.9067993164062 140 33 39
1096 841 953.8228149414062 64 57 75
1097 841 954.6271362304688 73 66 84
1098 841 988.7310180664062 73 64 83
1099 841 989.5504150390625 64 55 74
1100 841 990.3701171875 76 69 87
1113 841 999.4088134765625 80 76 93
1114 841 1000.2324829101562 81 77 94
1124 841 1006.0069580078125 83 81 95
1125 841 1006.8331298828125 78 76 90
1126 841 1007.65966796875 77 73 90
1128 841 1009.3135986328125 78 77 93
1129 841 1010.1410522460938 89 88 104
1130 841 1010.9688720703125 86 85 99
1131 841 1011.7969360351562 83 81 94
1132 841 1012.6253051757812 76 74 88
1138 841 1015.9419555664062 74 75 93
1265 841 1122.0499267578125 91 82 99
1266 841 1122.91455078125 113 101 125
1270 841 1124.6444091796875 168 166 190
1275 841 1126.3751220703125 167 165 189
1276 841 1127.2408447265625 164 160 185
1414 841 1203.0003662109375 181 178 199
1588 841 1305.95751953125 181 190 205
1589 841 1306.8572998046875 189 196 214
1590 841 1307.7572021484375 175 177 198
1863 841 1484.4652099609375 146 160 189
1871 841 1489.0775146484375 148 162 191
1872 841 1490.0003662109375 147 158 188
1876 841 1493.6923828125 168 186 208
1883 841 1498.3096923828125 167 183 206
1884 841 1499.2335205078125 169 183 209
670 842 745.5957641601562 126 23 27
691 842 746.8928833007812 132 23 29
694 842 748.4149780273438 130 23 29
1099 842 990.1237182617188 74 72 86
1100 842 990.9429931640625 65 64 78
1101 842 991.7625732421875 71 69 83
1102 842 992.58251953125 77 70 88
1124 842 1006.5709228515625 69 68 84
1127 842 983.5817260742188 78 76 90
1136 842 1014.8423461914062 71 70 88
1288 842 1133.8050537109375 173 169 192
1430 842 1211.4140625 172 167 190
1432 842 1213.180908203125 178 172 198
1603 842 1315.395751953125 177 179 200
1604 842 1316.2967529296875 182 187 207
1605 842 1317.19775390625 184 191 209
1606 842 1318.0989990234375 186 193 209
1613 842 1322.6072998046875 183 197 208
1882 842 1497.7696533203125 163 179 204
1883 842 1498.693115234375 158 174 197
1884 842 1499.6165771484375 161 176 199
1889 842 1501.4639892578125 160 181 202
1890 842 1502.3878173828125 159 177 199
1891 842 1503.3116455078125 167 182 205
1917 842 1520.88427734375 158 179 198
672 843 746.3578491210938 126 21 26
688 843 747.00537109375 128 22 26
1094 843 953.4075927734375 78 57 74
1124 843 1006.5709228515625 78 80 95
1127 843 983.5817260742188 80 79 95
1145 843 1000.7996826171875 70 68 82
1265 843 1123.0565185546875 111 105 119
1298 843 1139.50732421875 178 176 197
1307 843 1144.71875 174 170 193
1607 843 1319.43359375 175 180 200
1612 843 1322.1376953125 170 179 194
1613 843 1323.039306640625 168 177 192
1614 843 1323.9410400390625 168 177 194
1617 843 1324.843017578125 172 185 201
1618 843 1325.7451171875 184 196 210
1619 843 1326.6473388671875 172 181 198
1624 843 1328.4521484375 186 198 212
1625 843 1329.354736328125 187 199 213
1626 843 1330.2574462890625 181 190 205
1892 843 1504.6181640625 159 171 197
1919 843 1523.1138916015625 156 175 190
688 844 747.767333984375 129 20 25
1312 844 1147.8209228515625 176 172 195
1313 844 1148.6905517578125 170 166 189
1317 844 1149.560302734375 175 171 194
1624 844 1328.8829345703125 184 191 209
1626 844 1330.687744140625 171 176 196
1645 844 1343.3369140625 192 199 217
1892 844 1505.0013427734375 166 184 206
685 845 748.5299072265625 130 19 26
690 845 748.5299072265625 131 22 25
1644 845 1342.859619140625 169 178 195
1645 845 1343.7637939453125 176 183 201
1649 845 1345.5723876953125 177 189 205
1650 845 1346.4769287109375 174 186 202
1655 845 1349.1912841796875 179 191 205
1656 845 1350.0963134765625 179 188 203
1892 845 1505.385009765625 173 191 213
666 846 747.2382202148438 113 27 30
694 846 749.9393310546875 133 24 29
705 846 752.5324096679688 137 28 33
707 846 752.5324096679688 139 38 46
1338 846 1162.73681640625 170 168 190
1656 846 1350.521728515625 171 173 196
1661 846 1352.3316650390625 171 182 200
1663 846 1354.1422119140625 175 186 204
1665 846 1355.953125 167 172 194
672 847 748.6474609375 125 22 26
703 847 751.9960327148438 136 26 29
704 847 752.6439819335938 138 29 34
707 847 753.2927856445312 144 44 52
1663 847 1354.567138671875 173 179 203
1680 847 1365.4376220703125 183 196 213
1681 847 1366.3443603515625 174 187 203
1682 847 1367.251220703125 176 187 205
686 848 749.533203125 129 20 26
688 848 750.8208618164062 129 20 25
703 848 752.7582397460938 133 22 28
704 848 753.4055786132812 139 28 34
707 848 754.0537109375 152 52 62
1128 848 1011.5661010742188 71 76 95
1134 848 1016.5244750976562 71 70 88
1138 848 1018.1797485351562 71 74 89
1141 848 999.22021484375 79 78 92
1144 848 1001.68359375 68 65 82
1367 848 1178.559326171875 179 175 198
1508 848 1260.301513671875 185 177 201
1707 848 1384.013427734375 179 196 212
1708 848 1384.92236328125 164 181 199
666 849 748.002685546875 124 35 39
687 849 750.9420776367188 127 20 26
694 849 752.2300415039062 129 20 26
703 849 753.5210571289062 132 21 27
704 849 754.167724609375 134 23 29
1097 849 990.7901000976562 77 74 93
1100 849 993.2411499023438 75 72 89
1101 849 994.058837890625 70 67 84
1102 849 994.8768920898438 75 74 90
1124 849 1008.83349609375 73 74 92
1125 849 1009.6573486328125 77 76 94
1126 849 1010.4815673828125 70 68 89
1128 849 1012.1309204101562 88 93 112
1129 849 1012.9560546875 80 87 105
1130 849 1013.7815551757812 81 87 103
1131 849 1014.6072998046875 80 83 98
1132 849 1015.4334106445312 73 72 88
1133 849 1016.2598266601562 69 66 83
1137 849 1017.91357421875 71 72 90
1380 849 1186.0458984375 171 169 191
1382 849 1187.79833984375 180 183 200
1707 849 1384.4305419921875 165 180 199
1708 849 1385.33935546875 172 184 206
1712 849 1387.1571044921875 176 193 209
1714 849 1388.9754638671875 170 187 203
1715 849 1389.8848876953125 156 172 188
1719 849 1390.79443359375 177 193 206
1720 849 1391.7039794921875 177 195 209
1721 849 1392.61376953125 168 184 200
1787 849 1435.5068359375 156 168 194
667 850 749.4117431640625 125 24 28
711 850 758.172119140625 117 35 49
1098 850 992.1839599609375 75 77 92
1099 850 993.00048828125 79 81 96
1100 850 993.8173828125 76 75 91
1101 850 994.6345825195312 70 69 85
1124 850 1009.4008178710938 77 78 96
1125 850 1010.2242431640625 78 79 97
1128 850 1012.6964111328125 88 95 113
1129 850 1013.5211181640625 88 97 114
1130 850 1014.3460693359375 83 90 106
1131 850 1015.17138671875 77 80 97
1132 850 1015.9970703125 79 80 98
1139 850 1020.1298828125 76 79 94
1143 850 1002.0045166015625 73 72 88
1713 850 1388.4830322265625 177 188 210
1720 850 1392.11962890625 173 181 202
1721 850 1393.029052734375 165 173 196
1744 850 1407.5972900390625 179 197 211
694 851 752.9946899414062 132 23 29
711 851 758.93212890625 123 39 54
1093 851 988.6865234375 90 57 66
1097 851 991.946044921875 74 75 93
1098 851 992.7617797851562 79 82 97
1099 851 993.577880859375 76 79 94
1100 851 994.394287109375 76 78 93
1101 851 995.2110595703125 78 80 95
1125 851 1010.791748046875 80 81 99
1126 851 1011.6150512695312 76 77 95
1128 851 1013.2625732421875 89 96 114
1129 851 1014.0867919921875 91 100 115
1130 851 1014.9113159179688 84 90 106
1131 851 1015.7362060546875 82 85 102
1132 851 1016.5613403320312 72 73 91
1552 851 1287.5286865234375 186 184 205
1553 851 1288.4227294921875 179 180 198
1554 851 1289.31689453125 182 183 201
1745 851 1408.920166015625 171 187 200
1746 851 1409.83154296875 170 184 197
1747 851 1410.7430419921875 177 189 205
1751 851 1412.56640625 170 183 199
1752 851 1413.4783935546875 172 182 194
1753 851 1414.390380859375 181 191 203
1754 851 1415.302490234375 176 185 202
711 852 756.98681640625 118 31 47
1094 852 957.0005493164062 78 66 80
1097 852 992.5250854492188 74 76 91
1099 852 994.1559448242188 75 78 95
1100 852 994.9718627929688 69 72 87
1101 852 995.7881469726562 70 72 87
1102 852 996.604736328125 80 79 97
1124 852 1010.5374755859375 83 85 98
1125 852 1011.3599853515625 79 81 96
1126 852 1012.1828002929688 75 78 95
1127 852 1013.0059204101562 83 86 103
1128 852 1013.829345703125 87 94 110
1129 852 1014.6531372070312 78 86 99
1130 852 1015.4772338867188 80 83 98
1131 852 1016.3016357421875 78 80 95
1133 852 1017.9513549804688 65 67 82
1136 852 1018.7767333984375 71 74 91
1414 852 1206.7916259765625 173 169 194
1554 852 1289.7646484375 181 178 199
1559 852 1292.447265625 189 185 208
1560 852 1293.341796875 180 176 199
1565 852 1296.0262451171875 183 179 202
1566 852 1296.92138671875 187 183 206
1570 852 1297.816650390625 184 182 204
1747 852 1411.154541015625 175 181 205
1751 852 1412.977294921875 166 174 195
1752 852 1413.888916015625 167 173 195
1753 852 1414.8006591796875 163 169 191
1760 852 1418.4488525390625 165 180 199
1761 852 1419.361083984375 166 181 200
1762 852 1420.2735595703125 168 181 200
705 853 757.10302734375 132 27 34
1094 853 957.6016845703125 75 64 78
1098 853 993.9194946289062 84 85 103
1099 853 994.734619140625 71 74 91
1100 853 995.5501098632812 66 69 86
1102 853 997.1820068359375 71 70 88
1129 853 1015.2201538085938 84 90 104
1130 853 1016.0438232421875 78 82 94
1132 853 1017.6920166015625 77 76 92
1264 853 1125.2310791015625 56 56 68
1761 853 1419.770751953125 162 174 196
1762 853 1420.6829833984375 165 173 196
1778 853 1431.63818359375 163 182 199
1785 853 1435.293701171875 164 184 195
1786 853 1436.2078857421875 158 178 189
1787 853 1437.1220703125 164 182 194
1788 853 1438.0364990234375 167 184 200
669 854 751.8330688476562 126 23 27
705 854 757.8667602539062 134 29 34
1785 854 1435.699462890625 166 178 200
1786 854 1436.6134033203125 159 172 191
1787 854 1437.52734375 163 174 196
1788 854 1438.4415283203125 161 168 194
1805 854 1449.419921875 165 184 201
1806 854 1450.33544921875 172 189 205
1807 854 1451.251220703125 168 185 201
1808 854 1452.1669921875 167 184 204
1093 855 990.4312133789062 86 59 74
1102 855 997.760009765625 79 78 96
1132 855 1018.25830078125 80 82 97
1144 855 1005.1159057617188 65 62 79
1266 855 1127.9703369140625 94 89 109
1606 855 1322.461669921875 186 188 209
1804 855 1448.9072265625 160 175 198
1806 855 1450.73779296875 164 181 199
1807 855 1451.6531982421875 168 185 203
1808 855 1452.5687255859375 163 178 201
1812 855 1454.4002685546875 163 184 203
1813 855 1455.316162109375 156 179 197
1815 855 1457.148193359375 161 182 201
1819 855 1458.9808349609375 168 189 208
1820 855 1459.897216796875 166 189 205
1821 855 1460.8138427734375 169 192 208
1822 855 1461.73046875 161 179 199
1826 855 1462.647216796875 157 183 200
1876 855 1497.563720703125 168 190 211
694 856 755.2919921875 131 20 26
1126 856 1013.8900146484375 80 81 101
1614 856 1328.2921142578125 173 170 197
1626 856 1334.587890625 179 184 204
1820 856 1460.297607421875 173 190 210
1821 856 1461.2138671875 160 175 198
1827 856 1463.9635009765625 159 177 199
1829 856 1465.7969970703125 157 175 199
704 857 757.98681640625 133 24 29
1480 857 1246.1978759765625 168 160 184
1827 857 1464.3634033203125 166 180 206
1848 857 1479.040283203125 158 179 198
1849 857 1479.95849609375 159 177 197
1850 857 1480.876708984375 155 170 193
1855 857 1483.63232421875 175 193 213
1856 857 1484.5511474609375 160 178 198
1863 857 1489.1463623046875 176 194 214
1864 857 1490.0657958984375 162 180 202
703 858 758.1094970703125 142 32 35
704 858 758.7522583007812 139 30 35
711 858 761.9776611328125 116 26 36
1141 858 1003.813232421875 71 70 84
1655 858 1353.4759521484375 178 187 204
1846 858 1477.60107421875 161 175 204
1872 858 1495.0565185546875 152 168 193
1873 858 1495.976318359375 158 175 201
1874 858 1496.8961181640625 153 175 198
1875 858 1497.8160400390625 163 192 210
1882 858 1502.4173583984375 163 188 208
1883 858 1503.3380126953125 167 194 211
690 859 756.9544067382812 130 21 26
703 859 758.8761596679688 134 24 27
705 859 760.1611938476562 138 33 40
1102 859 999.4978637695312 69 68 84
1103 859 1000.3124389648438 68 67 83
1501 859 1259.5289306640625 183 178 201
1848 859 1479.833740234375 166 183 209
1856 859 1485.3416748046875 167 179 205
1857 859 1486.2601318359375 159 171 197
1875 859 1498.208251953125 155 180 202
1876 859 1499.1280517578125 158 185 202
1882 859 1502.808349609375 163 184 205
1883 859 1503.728759765625 161 184 202
1885 859 1505.5697021484375 154 175 194
1890 859 1507.4110107421875 148 174 191
1891 859 1508.3319091796875 157 180 198
1893 859 1510.173828125 153 174 195
705 860 760.9270629882812 141 35 45
1681 860 1370.5899658203125 170 181 203
1890 860 1507.8013916015625 150 170 194
1891 860 1508.721923828125 158 176 198
1892 860 1509.6427001953125 154 170 193
1918 860 1527.1549072265625 158 179 196
1919 860 1528.0775146484375 171 193 207
701 861 759.1317138671875 137 22 29
709 861 762.97900390625 135 57 81
710 861 763.6229248046875 116 33 49
1525 861 1275.5438232421875 183 181 202
1919 861 1528.4632568359375 163 182 197
666 862 752.995361328125 121 27 28
686 862 757.2185668945312 132 21 27
697 862 760.5399169921875 133 22 28
703 862 761.1793212890625 139 26 32
1713 862 1392.260009765625 179 185 209
669 863 757.2185668945312 131 26 30
695 863 761.3093872070312 132 21 27
703 863 761.9481811523438 134 21 27
1093 863 960.427001953125 74 50 64
1126 863 1016.1756591796875 82 83 101
1134 863 1022.7438354492188 71 72 90
1142 863 1006.3622436523438 73 74 92
1555 863 1294.26123046875 177 173 196
1559 863 1296.0447998046875 185 186 206
1560 863 1296.936767578125 182 183 203
1098 864 997.9924926757812 71 72 90
1099 864 998.8042602539062 80 81 99
1100 864 999.616455078125 77 79 94
1123 864 1014.2923583984375 77 80 95
1124 864 1015.11083984375 64 63 81
1125 864 1015.9296264648438 70 67 88
1126 864 1016.7487182617188 69 67 88
1127 864 1017.5681762695312 73 74 92
1128 864 1018.387939453125 73 79 95
1129 864 1019.2080078125 77 83 97
1130 864 1020.0284423828125 72 75 90
1131 864 1020.8491821289062 77 79 94
1133 864 1022.4915771484375 76 75 91
1134 864 1023.313232421875 67 66 84
1143 864 906.3801879882812 68 67 85
1265 864 1130.177001953125 80 80 92
1746 864 1413.974853515625 168 183 204
1747 864 1414.8837890625 168 180 202
703 865 762.717529296875 137 27 30
1096 865 996.9553833007812 66 61 81
1097 865 997.7659912109375 75 72 91
1098 865 998.5769653320312 75 76 94
1100 865 1000.199951171875 73 74 92
1102 865 1001.8243408203125 75 74 90
1115 865 1010.7823486328125 67 66 84
1129 865 1019.7803955078125 78 84 100
1131 865 1021.4205932617188 82 85 100
1132 865 1022.2411499023438 76 78 93
1133 865 1023.0620727539062 77 76 94
1142 865 1007.5202026367188 69 68 86
1265 865 1130.6905517578125 81 81 93
1588 865 1313.91357421875 179 185 201
1760 865 1422.5740966796875 161 176 197
1096 866 997.54150390625 81 78 97
1097 866 998.3516235351562 85 84 102
1099 866 999.9730224609375 84 87 104
1100 866 1000.7841796875 77 80 95
1101 866 1001.595703125 72 75 90
1102 866 1002.4075927734375 77 76 94
1129 866 1020.3533935546875 78 87 104
1130 866 1021.1728515625 85 92 108
1131 866 1021.99267578125 80 86 102
1133 866 1023.6332397460938 76 77 95
1762 866 1424.8087158203125 154 159 189
1785 866 1439.377685546875 161 178 198
673 867 758.1273193359375 126 23 27
688 867 760.0341796875 135 26 32
1093 867 962.8561401367188 79 57 70
1133 867 1024.205078125 70 71 89
1145 867 1010.544921875 63 62 80
1786 867 1440.7005615234375 164 180 203
671 868 759.5347290039062 124 19 24
1097 868 999.52490234375 76 78 93
1100 868 1001.95458984375 74 77 92
1619 868 1334.949462890625 175 175 199
1626 868 1338.5372314453125 171 173 198
687 869 760.9421997070312 131 22 27
1264 869 1131.37841796875 62 67 73
1814 869 1460.67822265625 168 180 204
682 870 760.4485473632812 129 20 25
690 870 762.3496704101562 130 21 26
690 871 763.12255859375 129 18 24
702 871 764.392578125 142 31 37
678 872 762.6303100585938 129 20 25
709 872 768.3501586914062 120 33 50
1875 872 1502.1611328125 152 166 192
1094 873 965.4771118164062 67 59 74
1877 873 1504.3939208984375 167 182 205
1878 873 1505.311279296875 163 172 201
1883 873 1508.06396484375 158 174 197
1884 873 1508.9818115234375 161 177 200
683 874 764.1812744140625 127 21 25
703 874 767.3447875976562 131 22 27
704 874 767.9797973632812 138 32 36
1130 874 1024.04541015625 77 78 96
1131 874 1024.8629150390625 72 73 91
1706 874 1391.5667724609375 169 175 201
1892 874 1513.96826171875 157 175 199
685 875 763.5509033203125 128 19 24
1094 875 966.698486328125 66 55 71
1096 875 1001.0718994140625 78 75 92
1097 875 1001.8792114257812 72 71 87
1098 875 1002.6868896484375 65 67 82
1099 875 1003.494873046875 73 75 90
1101 875 1005.1119384765625 75 77 92
1102 875 1005.9209594726562 72 71 87
1116 875 1015.6559448242188 67 69 84
1126 875 1021.35693359375 71 69 90
1127 875 1022.1726684570312 72 73 93
1129 875 1023.80517578125 77 80 97
1130 875 1024.621826171875 82 83 101
1131 875 1025.43896484375 70 71 89
1143 875 1012.4055786132812 62 61 77
1147 875 1018.9607543945312 70 72 85
1721 875 1401.0328369140625 164 172 195
1893 875 1515.2828369140625 153 167 193
1919 875 1532.742919921875 159 185 202
695 876 768.2584228515625 131 22 27
1096 876 1001.66259765625 66 63 82
1097 876 1002.4694213867188 74 73 91
1098 876 1003.276611328125 77 79 94
1099 876 1004.0841674804688 73 76 91
1100 876 1004.8920288085938 71 74 89
1101 876 1005.7002563476562 67 70 85
1102 876 1006.5087890625 71 73 88
1115 876 1015.425537109375 73 72 90
1125 876 1021.1209716796875 70 68 89
1126 876 1021.9359130859375 74 73 91
1127 876 1022.751220703125 78 79 97
1128 876 1023.5667724609375 76 77 97
1129 876 1024.3826904296875 76 77 97
1130 876 1025.198974609375 80 83 102
1131 876 1026.015625 70 71 91
1133 876 1027.6497802734375 66 67 87
1140 876 1010.5567626953125 74 76 91
668 877 763.5509033203125 126 21 25
1093 877 967.1323852539062 69 47 60
1096 877 1002.2539672851562 78 75 94
1097 877 1003.060302734375 77 76 94
1099 877 1004.674072265625 74 77 92
1100 877 1005.4815063476562 80 83 98
1101 877 1006.2892456054688 82 85 100
1102 877 1007.0972900390625 80 82 97
1103 877 1007.90576171875 66 68 83
1104 877 1008.7145385742188 72 71 89
1115 877 1016.0088500976562 73 72 90
1124 877 1020.8868408203125 82 80 101
1125 877 1021.7010498046875 77 76 94
1126 877 1022.5155029296875 81 80 98
1127 877 1023.330322265625 84 85 103
1128 877 1024.1455078125 85 86 106
1129 877 1024.9609375 82 83 103
1131 877 1026.5928955078125 81 84 101
1132 877 1027.409423828125 81 82 102
1133 877 1028.2261962890625 72 73 93
1134 877 1029.043212890625 69 70 90
1139 877 1031.4964599609375 76 78 93
1265 877 1134.822021484375 78 80 93
1722 877 1402.79150390625 177 183 207
1747 877 1419.082763671875 171 183 205
1096 878 1002.845947265625 74 73 89
1097 878 1003.65185546875 78 80 95
1100 878 1006.0715942382812 76 80 92
1101 878 1006.8788452148438 77 81 93
1102 878 1007.6864624023438 65 67 80
1103 878 1008.4944458007812 80 82 97
1104 878 1009.302734375 73 72 88
1114 878 1015.781494140625 78 80 95
1115 878 1016.5928344726562 76 78 93
1126 878 1023.0957641601562 77 78 96
1128 878 1024.724853515625 85 86 104
1129 878 1025.5399169921875 81 84 101
1130 878 1026.355224609375 77 80 97
1131 878 1027.1708984375 80 83 98
1132 878 1027.98681640625 82 83 101
1133 878 1028.80322265625 76 77 95
1134 878 1029.619873046875 74 75 93
1141 878 1012.5393676757812 72 74 89
1265 878 1135.34130859375 88 92 104
1266 878 1136.19580078125 137 138 156
1761 878 1427.66455078125 167 177 202
669 879 764.4769287109375 127 22 26
700 879 768.5473022460938 136 27 32
1100 879 1006.6622924804688 70 73 88
1101 879 1007.4691162109375 72 76 88
1102 879 1008.2762451171875 69 71 84
1125 879 1022.8631591796875 63 65 80
1126 879 1023.6766967773438 79 80 98
1128 879 1025.3048095703125 82 83 101
1129 879 1026.119384765625 76 79 96
1130 879 1026.934326171875 78 81 96
1266 879 1136.7154541015625 128 130 145
1267 879 1137.56982421875 149 150 170
1785 879 1443.519287109375 164 176 200
1788 879 1446.24658203125 164 179 200
1095 880 970.5524291992188 66 59 75
1125 880 1022.8631591796875 70 69 85
1130 880 1026.934326171875 80 83 98
1131 880 1027.74951171875 83 86 101
1141 880 1013.1263427734375 70 72 87
1270 880 1138.94384765625 173 178 198
668 881 766.66162109375 124 19 24
1136 881 1007.253662109375 70 69 87
702 882 770.5841674804688 137 28 33
1829 882 1473.8931884765625 157 169 193
1830 882 1474.8050537109375 161 168 196
1831 882 1475.7171630859375 163 170 198
701 883 770.7308349609375 132 23 28
1828 883 1473.392333984375 168 182 208
1830 883 1475.215576171875 160 165 195
1848 883 1487.07763671875 166 178 200
692 884 770.2525634765625 126 20 24
701 884 771.5082397460938 127 18 23
1849 884 1488.3984375 170 182 206
1857 884 1493.8787841796875 171 182 210
1858 884 1494.7926025390625 154 160 194
1865 884 1499.3631591796875 162 174 200
700 885 771.6586303710938 133 24 29
703 885 773.5438232421875 129 24 31
704 885 774.1737670898438 126 29 36
1858 885 1495.198974609375 150 159 192
1873 885 1504.34033203125 139 153 182
1875 885 1506.169921875 149 166 192
1876 885 1507.0849609375 150 168 192
653 886 767.4405517578125 106 41 39
1115 886 1020.1102905273438 66 64 85
1340 886 1178.9232177734375 189 192 207
1886 886 1514.8101806640625 152 163 191
1891 886 1516.6417236328125 159 174 197
1892 886 1517.5576171875 159 171 197
654 887 766.9693603515625 112 36 38
655 887 767.5942993164062 108 28 31
1127 887 1026.81884765625 77 78 98
1264 887 1137.6190185546875 58 61 70
667 888 769.9376831054688 124 21 25
687 888 772.5917358398438 131 22 27
701 888 774.6231079101562 128 19 24
1099 888 1008.8215942382812 78 79 97
1102 888 1011.23486328125 70 73 90
1126 888 1026.5909423828125 77 78 98
1918 888 1535.7740478515625 150 166 191
1099 889 1009.4166870117188 73 76 93
1100 889 1010.2202758789062 65 66 84
1102 889 1011.8285522460938 78 81 98
1103 889 1012.6331787109375 72 73 91
1124 889 1025.554443359375 72 75 94
1125 889 1026.364990234375 71 72 92
1126 889 1027.17578125 74 75 95
1127 889 1027.98681640625 79 80 100
1128 889 1028.79833984375 84 87 106
1131 889 1031.2347412109375 79 82 99
1134 889 1033.674072265625 69 70 88
1135 889 1034.48779296875 76 77 95
1265 889 1139.5191650390625 87 94 104
701 890 775.4031372070312 137 28 33
1097 890 1008.4071655273438 66 68 83
1098 890 1009.2095947265625 75 78 93
1099 890 1010.0123901367188 71 74 89
1101 890 1011.6190185546875 68 71 86
1102 890 1012.4228515625 77 79 94
1103 890 1013.22705078125 70 72 87
1127 890 1028.57177734375 82 81 99
1128 890 1029.3828125 77 78 96
1130 890 1031.005859375 79 82 99
1131 890 1031.81787109375 78 81 98
1133 890 1033.4427490234375 71 74 89
1134 890 1034.2557373046875 68 70 85
1135 890 1035.069091796875 72 74 89
1141 890 1017.253173828125 64 66 81
1142 890 1018.0594482421875 62 64 79
1267 890 1141.7464599609375 142 147 167
707 891 778.6892700195312 136 53 69
708 891 779.317626953125 116 32 45
1097 891 1009.0044555664062 73 75 90
1098 891 1009.806396484375 65 67 82
1099 891 1010.6087036132812 72 75 90
1100 891 1011.411376953125 71 74 89
1101 891 1012.2144165039062 69 72 87
1104 891 1014.6255493164062 66 65 81
1105 891 1015.429931640625 69 68 84
1126 891 1028.34716796875 72 71 89
1127 891 1029.157470703125 79 78 96
1128 891 1029.968017578125 76 75 93
1133 891 1034.025634765625 66 69 84
1135 891 1035.6510009765625 72 74 89
1139 891 1016.2347412109375 68 69 87
1140 891 1017.039794921875 66 68 83
655 892 770.7197875976562 122 26 30
663 892 770.8806762695312 121 20 26
690 892 773.6904907226562 128 19 25
651 895 772.125 113 34 39
673 895 774.4739990234375 123 19 26
691 895 776.6627197265625 127 20 26
707 895 781.0262451171875 119 32 51
651 896 772.907470703125 110 38 41
655 896 772.2855834960938 125 34 39
1100 896 1013.80126953125 75 77 92
1114 896 1023.4378051757812 77 74 91
1128 896 1032.3148193359375 74 75 93
1129 896 1033.1239013671875 73 74 92
651 897 773.6904907226562 107 37 39
654 897 772.44873046875 122 36 39
655 897 773.0692138671875 119 30 34
700 897 777.905517578125 128 21 27
1096 897 1011.2012939453125 66 63 82
1105 897 1018.4071044921875 69 68 84
1137 897 1014.0044555664062 72 71 85
652 898 773.8533325195312 106 30 34
655 898 773.8533325195312 126 40 43
658 898 772.6143798828125 122 40 44
703 898 780.5568237304688 136 37 42
652 899 774.6380004882812 109 34 38
655 899 774.6380004882812 117 32 35
656 899 775.2579956054688 123 38 43
657 899 774.6380004882812 117 35 39
660 899 774.6380004882812 119 34 39
703 899 781.338623046875 139 39 47
1100 899 1014.4003295898438 77 83 97
1103 899 1016.8033447265625 79 81 96
670 900 776.0425415039062 127 26 32
673 900 777.613037109375 121 25 29
694 900 779.636474609375 136 27 33
701 900 780.8770751953125 128 21 27
707 900 783.3677368164062 121 33 49
1095 900 1011.0044555664062 72 69 86
1096 900 1011.8028564453125 73 75 90
1097 900 1012.6016235351562 69 72 87
1101 900 1015.8001708984375 77 80 95
1104 900 1018.2028198242188 71 73 88
1140 900 1020.608642578125 76 75 91
1141 900 1021.4112548828125 76 75 91
1142 900 1022.2142333984375 63 62 76
655 901 776.208740234375 111 35 39
664 901 774.357177734375 116 29 35
667 901 776.208740234375 122 32 34
679 901 777.7814331054688 123 22 28
706 901 783.5260009765625 137 48 66
1097 901 1013.2033081054688 68 72 84
1098 901 1014.001953125 76 78 93
1099 901 1014.8009643554688 83 85 100
1101 901 1016.4000244140625 65 68 85
1102 901 1017.2000732421875 67 70 85
1105 901 1019.6023559570312 61 63 78
1116 901 1026.828125 66 67 85
1127 901 1033.2744140625 84 85 103
1128 901 1034.0816650390625 77 78 96
1129 901 1034.889404296875 78 81 96
1130 901 1035.6973876953125 75 81 97
1131 901 1036.505615234375 70 76 92
1140 901 1021.2056884765625 64 63 79
664 902 775.1451416015625 115 30 35
676 902 778.5685424804688 127 29 30
700 902 781.0409545898438 126 19 25
702 902 782.2819213867188 132 28 37
707 902 784.9312133789062 120 32 46
1097 902 1013.8057250976562 70 72 87
1098 902 1014.6038818359375 70 69 87
1099 902 1015.4024047851562 75 74 92
1101 902 1017.00048828125 67 68 86
1102 902 1017.800048828125 66 68 83
1103 902 1018.6000366210938 74 76 91
1105 902 1020.2009887695312 67 66 82
1126 902 1033.05859375 69 66 87
1127 902 1033.8651123046875 71 69 90
1128 902 1034.671875 66 65 83
1129 902 1035.4791259765625 73 72 90
1140 902 1021.8032836914062 64 65 83
1265 902 1144.2679443359375 79 85 101
1266 902 1145.11572265625 111 115 140
1267 902 1145.9637451171875 134 138 167
1268 902 1146.8121337890625 138 139 169
1269 902 1147.66064453125 147 148 176
1271 902 1147.66064453125 164 166 189
1272 902 1148.509521484375 164 166 187
1273 902 1149.3585205078125 162 164 185
677 903 778.3989868164062 131 32 35
680 903 779.972412109375 124 25 28
685 903 779.972412109375 126 23 27
786 903 826.3201293945312 105 35 37
1106 903 1021.6007080078125 76 75 93
1134 903 1040.108154296875 75 78 93
1141 903 1023.2028198242188 62 63 81
1267 903 1146.4937744140625 138 142 171
1272 903 1149.038330078125 169 171 192
1273 903 1149.886962890625 163 165 186
1277 903 1150.73583984375 165 166 186
1278 903 1151.5849609375 163 161 183
669 904 776.7225952148438 114 27 33
700 904 782.6116333007812 133 26 32
1104 904 1020.600341796875 67 69 84
1277 904 1151.2645263671875 168 175 194
1278 904 1152.11328125 167 172 194
1291 904 1158.9119873046875 169 167 189
1292 904 1159.762939453125 168 164 187
679 905 779.3561401367188 122 26 30
683 905 778.7406616210938 126 25 29
699 905 782.7802734375 131 24 30
1268 905 1148.40283203125 169 177 198
1292 905 1160.288330078125 164 162 184
671 906 779.5293579101562 110 28 34
676 906 780.1442260742188 121 32 38
679 906 780.1442260742188 124 29 33
682 906 780.7598876953125 124 25 30
1140 906 1024.2001953125 67 69 82
1300 906 1164.21728515625 164 164 190
1301 906 1165.0687255859375 174 174 198
1302 906 1165.9202880859375 164 162 186
1308 906 1168.476318359375 162 156 184
1309 906 1169.328857421875 170 164 192
1310 906 1170.181640625 177 175 199
690 907 781.5478515625 125 18 24
701 907 784.0159301757812 133 28 33
702 907 784.6349487304688 137 33 40
1132 907 1040.262451171875 71 72 90
1314 907 1172.409423828125 170 164 190
1315 907 1173.2625732421875 165 161 186
1319 907 1174.1158447265625 174 168 196
1320 907 1174.9693603515625 176 177 198
1321 907 1175.8231201171875 164 165 186
683 908 781.1082153320312 121 29 32
684 908 781.7218017578125 127 31 35
685 908 782.3362426757812 126 27 32
1264 908 1147.77392578125 62 64 76
1321 908 1176.3438720703125 166 162 189
677 909 781.2861328125 116 31 38
685 909 783.1251220703125 121 26 32
690 909 783.1251220703125 129 22 30
697 909 783.1251220703125 128 21 27
699 909 784.3551635742188 130 23 29
1137 909 1020.0122680664062 67 68 86
681 910 783.3013305664062 121 34 40
702 910 786.9923706054688 130 33 40
1345 910 1190.2042236328125 166 171 193
1346 910 1191.0604248046875 158 160 185
685 911 784.7044067382812 121 30 37
688 911 785.3177490234375 124 24 32
699 911 785.9319458007812 133 26 32
700 911 786.546875 141 37 44
702 911 787.7791748046875 130 35 43
1265 911 1147.4620361328125 72 80 93
1344 911 1189.865478515625 181 183 208
1350 911 1192.4332275390625 169 169 195
1351 911 1193.28955078125 169 166 193
701 912 787.9505004882812 130 29 35
702 912 788.56640625 128 31 40
1097 912 1018.6471557617188 72 71 85
1127 912 1038.613037109375 85 87 102
1128 912 1039.4161376953125 78 80 93
1142 912 1024.6038818359375 58 60 75
1264 912 1147.1517333984375 59 61 73
1266 912 1148.841552734375 108 110 135
1267 912 1149.6868896484375 132 132 160
701 913 788.7388916015625 126 22 29
702 913 789.3541870117188 137 40 49
1100 913 1020.4254150390625 71 72 90
1102 913 1022.0176391601562 72 73 91
1103 913 1022.8142700195312 70 71 89
1104 913 1023.6112670898438 73 72 90
1105 913 1024.4085693359375 66 63 80
1127 913 1038.017333984375 67 69 84
1128 913 1038.8209228515625 65 67 80
1129 913 1039.6248779296875 69 71 84
1130 913 1040.42919921875 71 73 88
1131 913 1041.23388671875 73 75 90
1138 913 1022.0176391601562 57 56 70
1264 913 1149.3763427734375 63 65 77
1266 913 1149.3763427734375 121 121 149
1268 913 1151.06640625 150 145 177
1369 913 1203.74951171875 176 170 198
1370 913 1204.6077880859375 180 176 201
1371 913 1205.46630859375 174 170 195
1629 913 1356.5548095703125 182 198 213
702 914 790.1423950195312 132 35 44
1093 914 1017.8531494140625 65 53 65
1098 914 1019.4415283203125 80 77 94
1099 914 1020.2362670898438 81 78 95
1100 914 1021.0313110351562 71 72 90
1101 914 1021.8267822265625 78 81 100
1102 914 1022.6226196289062 76 79 98
1103 914 1023.4187622070312 79 80 98
1104 914 1024.21533203125 73 72 90
1105 914 1025.01220703125 68 65 84
1106 914 1025.8094482421875 67 62 84
1128 914 1039.4161376953125 73 75 90
1129 914 1040.2197265625 70 72 87
1130 914 1041.0235595703125 73 74 92
1131 914 1041.8277587890625 71 74 91
1132 914 1042.6322021484375 69 72 89
1134 914 1044.2423095703125 71 77 93
1142 914 1028.2032470703125 52 54 67
1383 914 1211.9921875 164 160 187
1385 914 1213.7120361328125 175 171 196
701 915 790.3170166015625 128 28 36
1093 915 982.3665161132812 72 60 74
1094 915 1019.255126953125 69 63 77
1098 915 1020.0490112304688 81 78 95
1099 915 1020.84326171875 78 77 93
1100 915 1021.6378784179688 73 74 94
1101 915 1022.432861328125 69 72 91
1102 915 1023.2282104492188 73 76 95
1103 915 1024.02392578125 78 81 98
1104 915 1024.8199462890625 77 78 96
1105 915 1025.616455078125 69 68 86
1128 915 1040.011962890625 76 77 95
1129 915 1040.8150634765625 79 80 98
1130 915 1041.618408203125 72 75 92
1131 915 1042.422119140625 72 75 92
1132 915 1043.2261962890625 69 75 91
1133 915 1044.0306396484375 76 82 98
1134 915 1044.83544921875 68 74 90
1135 915 1045.6405029296875 72 75 92
1293 915 1164.831787109375 153 151 173
1386 915 1215.082275390625 178 174 199
1391 915 1217.663330078125 167 163 188
1392 915 1218.5240478515625 164 158 186
1094 916 1019.8637084960938 65 61 75
1098 916 1020.6571655273438 79 81 96
1099 916 1021.450927734375 74 76 91
1100 916 1022.2450561523438 78 81 100
1101 916 1023.0396118164062 72 77 96
1102 916 1023.83447265625 71 77 93
1103 916 1024.629638671875 75 78 93
1104 916 1025.42529296875 71 74 89
1105 916 1026.22119140625 74 76 91
1117 916 1034.2001953125 86 89 108
1128 916 1040.6085205078125 78 81 96
1129 916 1041.4110107421875 81 84 99
1130 916 1042.2139892578125 73 79 93
1131 916 1043.0172119140625 73 79 93
1132 916 1043.8209228515625 74 80 94
1133 916 1044.624755859375 64 70 84
1134 916 1045.4290771484375 69 72 87
1135 916 1046.2337646484375 68 71 86
1292 916 1164.5140380859375 170 170 194
1297 916 1167.057861328125 171 167 192
1301 916 1168.7548828125 166 164 188
1391 916 1218.1728515625 171 171 195
1392 916 1219.033203125 166 160 188
1402 916 1223.3385009765625 160 156 183
683 917 785.063720703125 112 30 36
1098 917 1021.265869140625 81 83 98
1099 917 1022.0592041015625 64 65 83
1100 917 1022.8528442382812 75 78 95
1101 917 1023.6469116210938 78 81 98
1102 917 1024.4412841796875 67 70 87
1103 917 1025.236083984375 79 82 97
1104 917 1026.0311279296875 76 79 94
1105 917 1026.82666015625 72 75 90
1106 917 1027.62255859375 72 74 89
1128 917 1041.20556640625 65 68 83
1129 917 1042.0076904296875 66 69 84
1130 917 1042.8101806640625 72 75 90
1131 917 1043.6129150390625 76 79 94
1132 917 1044.4161376953125 76 79 94
1095 918 1021.875244140625 57 56 70
1097 918 1021.082763671875 68 70 83
1106 918 1028.22802734375 67 66 82
1128 918 1041.80322265625 72 73 91
1316 918 1178.3055419921875 166 166 190
1320 918 1179.156005859375 174 179 199
