ply
format ascii 1.0
element vertex 1239
property float x
property float y
property float z
property float red
property float green
property float blue
end_header
1758 107 1285.1556396484375 157 180 198
1774 107 1296.154296875 163 179 204
1775 107 1297.1541748046875 168 184 207
1776 107 1298.154052734375 178 196 216
1777 107 1299.1539306640625 180 198 218
1778 107 1300.15380859375 175 196 215
1825 107 1333.12158203125 144 165 186
1859 107 1357.0943603515625 153 174 195
1888 107 1379.08154296875 167 193 210
726 108 713.6231689453125 115 124 131
727 108 714.6138916015625 119 128 135
751 108 721.1525268554688 116 126 136
819 108 745.0966186523438 139 151 165
1011 108 826.8839111328125 148 159 177
1015 108 828.876953125 163 174 192
1016 108 829.8734741210938 159 170 190
1044 108 842.5888671875 152 163 183
1049 108 845.5797119140625 162 170 191
1050 108 846.57666015625 166 174 193
1092 108 866.2216796875 162 173 191
1093 108 867.2191162109375 182 193 213
1094 108 868.216552734375 168 179 197
1104 108 873.203857421875 157 170 189
1105 108 874.2013549804688 172 185 204
1129 108 885.9666748046875 171 182 202
1130 108 886.9644775390625 173 184 202
1131 108 887.9622802734375 173 184 202
1134 108 888.9600830078125 162 173 193
1135 108 889.9578857421875 165 176 196
1138 108 890.9556884765625 170 183 202
1139 108 891.9534912109375 170 183 202
1142 108 891.9534912109375 185 196 214
1171 108 908.7271118164062 152 163 185
1172 108 909.7252197265625 169 180 200
1173 108 910.7233276367188 159 170 190
1176 108 911.721435546875 165 176 198
1177 108 912.7195434570312 171 182 202
1178 108 913.7176513671875 166 177 197
1180 108 912.7195434570312 161 172 192
1181 108 913.7176513671875 180 191 211
1182 108 914.7158203125 182 193 211
1238 108 946.4296264648438 157 165 188
1239 108 947.4281005859375 179 190 210
1240 108 948.4265747070312 180 191 209
1267 108 963.2471313476562 178 189 209
1268 108 964.245849609375 181 192 210
1269 108 965.2445068359375 169 180 200
1273 108 967.241943359375 167 178 198
1277 108 969.2393798828125 178 186 209
1278 108 970.2380981445312 170 178 199
1443 108 1071.6739501953125 187 196 213
1562 108 1149.4180908203125 180 185 207
1563 108 1150.417724609375 191 196 216
1564 108 1151.4173583984375 187 194 213
1615 108 1185.330810546875 163 170 196
1616 108 1186.3304443359375 173 184 206
1617 108 1187.3302001953125 180 191 213
1618 108 1188.3299560546875 182 193 213
1621 108 1189.32958984375 178 189 211
1622 108 1190.329345703125 180 195 214
1623 108 1191.3291015625 178 195 211
1624 108 1192.328857421875 178 195 211
1691 108 1237.2327880859375 160 175 194
1692 108 1238.232666015625 159 174 193
1755 108 1282.1719970703125 153 168 191
1756 108 1283.171875 151 165 191
1757 108 1284.1717529296875 157 171 197
1851 108 1352.10693359375 147 169 192
1852 108 1353.1068115234375 150 175 195
745 109 720.2922973632812 123 132 141
751 109 721.2835693359375 117 127 137
790 109 735.6500244140625 137 149 165
858 109 759.658447265625 148 160 176
1011 109 826.9679565429688 160 171 189
1044 109 842.6677856445312 148 159 179
1045 109 843.6646118164062 156 167 185
1093 109 867.2911987304688 164 175 195
1094 109 868.28857421875 159 170 188
1129 109 886.0338745117188 153 164 184
1130 109 887.0315551757812 155 166 186
1131 109 888.029296875 159 170 190
1133 109 888.029296875 158 169 191
1134 109 889.0269775390625 168 176 197
1135 109 890.0247192382812 163 174 194
1138 109 891.0224609375 177 190 207
1171 109 908.789306640625 156 167 189
1172 109 909.787353515625 167 178 198
1173 109 910.785400390625 172 183 203
1176 109 911.783447265625 175 186 206
1177 109 912.7814331054688 179 190 210
1178 109 913.779541015625 176 187 207
1226 109 939.4961547851562 175 184 201
1227 109 940.4945678710938 167 176 193
1267 109 963.2985229492188 162 173 193
1268 109 964.2971801757812 165 176 196
1269 109 965.2958374023438 166 174 195
1273 109 967.2931518554688 171 182 202
1276 109 968.2918090820312 168 176 199
1277 109 969.2904663085938 182 190 211
1278 109 970.2891235351562 183 191 212
1561 109 1148.4459228515625 181 186 208
1615 109 1185.3548583984375 173 184 206
1616 109 1186.3544921875 183 196 215
1617 109 1187.354248046875 187 200 219
1618 109 1188.3538818359375 179 192 209
1686 109 1235.2530517578125 162 177 198
1690 109 1236.2528076171875 168 180 202
1691 109 1237.2525634765625 164 176 198
1692 109 1238.25244140625 159 171 193
1743 109 1275.1898193359375 171 194 210
1748 109 1278.1893310546875 160 179 196
1749 109 1279.189208984375 162 181 198
1755 109 1282.188720703125 154 164 191
1756 109 1283.1885986328125 160 172 198
1757 109 1284.1884765625 157 169 195
1758 109 1285.1883544921875 145 159 185
1815 109 1325.15087890625 150 167 193
1850 109 1351.119873046875 144 162 186
1851 109 1352.119873046875 144 162 186
1852 109 1353.1197509765625 140 160 184
855 110 759.7697143554688 155 167 181
888 110 772.3651733398438 147 159 173
1035 110 838.760986328125 166 175 192
1039 110 840.75439453125 146 157 177
1092 110 866.3671264648438 164 175 195
1093 110 867.3643798828125 165 176 196
1094 110 868.3616943359375 157 165 186
1129 110 886.1021118164062 159 167 190
1130 110 887.0997924804688 164 175 197
1131 110 888.097412109375 165 176 198
1134 110 889.0950317382812 168 179 199
1171 110 908.8526000976562 156 167 189
1172 110 909.8505249023438 171 182 202
1173 110 910.8485107421875 174 187 204
1174 110 911.8464965820312 175 188 205
1177 110 912.844482421875 188 196 215
1222 110 938.5547485351562 173 186 205
1225 110 938.5547485351562 163 171 194
1226 110 939.5531005859375 171 179 200
1227 110 940.5514526367188 166 174 195
1267 110 963.3509521484375 161 169 192
1268 110 964.3495483398438 163 171 194
1269 110 965.34814453125 163 171 194
1273 110 967.3453369140625 179 192 209
1325 110 997.1083374023438 185 193 214
1546 110 1138.4783935546875 164 164 188
1547 110 1139.4779052734375 171 171 195
1615 110 1185.379638671875 176 187 207
1617 110 1187.3790283203125 183 199 214
1618 110 1188.3787841796875 177 190 207
1684 110 1233.2740478515625 163 175 199
1685 110 1234.27392578125 161 173 197
1686 110 1235.273681640625 160 167 195
1691 110 1237.273193359375 164 176 200
1692 110 1238.27294921875 170 185 206
1741 110 1273.207763671875 164 180 203
1756 110 1283.2061767578125 164 178 204
1757 110 1284.2059326171875 169 185 208
1758 110 1285.205810546875 168 186 206
1843 110 1346.1341552734375 159 173 200
1844 110 1347.134033203125 161 175 201
1850 110 1351.133544921875 151 167 193
1851 110 1352.133544921875 154 170 196
699 111 704.4238891601562 75 79 80
717 111 712.056884765625 105 112 120
997 111 820.1664428710938 157 169 185
1092 111 866.4415893554688 164 175 195
1093 111 867.4387817382812 177 188 208
1094 111 868.4359741210938 169 177 198
1118 111 880.1863403320312 175 186 204
1119 111 881.183837890625 165 177 193
1129 111 886.1715698242188 165 173 196
1155 111 899.9360961914062 181 189 210
1156 111 900.9339599609375 178 189 207
1217 111 935.6179809570312 168 179 197
1221 111 937.614501953125 168 179 199
1225 111 938.61279296875 172 180 203
1226 111 939.611083984375 175 186 206
1227 111 940.609375 176 187 207
1255 111 956.4146728515625 169 181 197
1267 111 963.4043579101562 174 182 205
1268 111 964.4029541015625 173 184 204
1321 111 996.1571044921875 180 193 209
1482 111 1096.6585693359375 190 199 216
1540 111 1135.5091552734375 166 173 192
1545 111 1137.50830078125 173 175 198
1546 111 1138.5078125 175 177 200
1547 111 1139.50732421875 187 187 211
1599 111 1174.4091796875 160 171 193
1600 111 1175.4088134765625 172 179 205
1677 111 1228.2967529296875 161 173 195
1678 111 1229.2965087890625 162 174 196
1684 111 1233.2955322265625 165 177 201
1685 111 1234.2952880859375 170 182 206
1686 111 1235.295166015625 167 177 204
1691 111 1237.294677734375 177 192 215
1692 111 1238.29443359375 177 194 214
1734 111 1268.22705078125 167 184 204
1757 111 1284.2242431640625 182 200 220
1838 111 1341.149169921875 155 175 199
1839 111 1342.1490478515625 151 171 195
1840 111 1343.14892578125 146 162 188
1841 111 1344.1488037109375 151 165 192
1843 111 1346.1485595703125 147 161 190
1900 111 1386.104248046875 151 173 194
1901 111 1387.1041259765625 167 189 210
1902 111 1388.1041259765625 153 179 196
1903 111 1389.10400390625 149 175 192
1904 111 1390.10400390625 147 173 190
1905 111 1391.1038818359375 145 168 186
709 112 709.2284545898438 105 114 119
777 112 731.0684204101562 133 145 157
808 112 741.6043701171875 129 137 156
847 112 756.0224609375 147 156 171
879 112 768.6039428710938 152 164 180
922 112 787.0762329101562 163 172 189
996 112 819.2587890625 150 158 177
997 112 820.2548217773438 154 162 181
1034 112 837.9290161132812 154 165 183
1077 112 858.5406494140625 174 185 203
1078 112 859.5376586914062 170 183 200
1114 112 879.2598876953125 179 190 208
1117 112 879.2598876953125 160 168 191
1118 112 880.25732421875 167 175 196
1155 112 900.002197265625 168 176 197
1156 112 901.0 164 172 193
1216 112 934.6790771484375 168 179 199
1221 112 937.6737060546875 177 190 209
1249 112 953.4741821289062 187 198 216
1250 112 954.47265625 169 180 198
1253 112 954.47265625 165 176 196
1254 112 955.4710693359375 172 183 201
1255 112 956.4695434570312 160 171 189
1267 112 963.4588623046875 184 195 215
1316 112 993.20947265625 176 187 205
1361 112 1021.0367431640625 176 187 205
1422 112 1057.8341064453125 183 191 210
1423 112 1058.8333740234375 186 195 212
1424 112 1059.83251953125 187 199 215
1477 112 1093.695556640625 181 188 207
1478 112 1094.6949462890625 180 188 207
1535 112 1132.5408935546875 161 167 189
1539 112 1134.5400390625 166 172 194
1540 112 1135.53955078125 178 185 204
1541 112 1136.5390625 170 177 196
1544 112 1136.5390625 177 183 205
1545 112 1137.53857421875 181 189 208
1546 112 1138.5380859375 192 204 218
1547 112 1139.53759765625 184 196 210
1591 112 1169.4378662109375 168 172 197
1592 112 1170.4375 173 177 202
1598 112 1173.4364013671875 184 197 216
1599 112 1174.43603515625 181 196 215
1600 112 1175.4356689453125 177 190 209
1677 112 1228.3192138671875 170 177 205
1678 112 1229.3189697265625 156 163 191
1679 112 1230.318603515625 168 175 201
1685 112 1234.317626953125 179 197 217
1686 112 1235.3173828125 178 195 215
1729 112 1263.2474365234375 169 186 206
1730 112 1264.2471923828125 169 188 205
1731 112 1265.2470703125 170 189 206
1732 112 1266.246826171875 162 177 196
1733 112 1267.24658203125 164 179 200
1798 112 1313.201416015625 149 165 188
1831 112 1337.1649169921875 151 167 192
1894 112 1383.1171875 151 172 193
1895 112 1384.1170654296875 155 177 198
1901 112 1387.1168212890625 148 166 190
1902 112 1388.11669921875 145 163 185
1903 112 1389.1165771484375 142 163 184
708 113 708.3819580078125 114 125 129
731 113 716.868896484375 124 133 142
847 113 756.1382446289062 139 148 163
878 113 767.719970703125 132 144 158
996 113 819.3485107421875 155 166 184
1073 113 857.6211547851562 177 188 208
1074 113 858.6181030273438 180 188 207
1077 113 858.6181030273438 161 172 190
1078 113 859.6150512695312 155 168 185
1109 113 876.340087890625 183 194 214
1110 113 877.3374633789062 178 189 207
1113 113 878.3347778320312 156 167 187
1114 113 879.3321533203125 158 169 187
1117 113 879.3321533203125 164 172 195
1118 113 880.3294677734375 169 177 198
1155 113 900.0694580078125 161 169 190
1156 113 901.067138671875 160 168 189
1209 113 929.7489013671875 172 180 201
1210 113 930.7470092773438 164 170 194
1246 113 952.5318603515625 177 188 206
1248 113 952.5318603515625 170 181 199
1249 113 953.5302734375 175 186 204
1250 113 954.5286865234375 170 181 199
1253 113 954.5286865234375 165 176 196
1254 113 955.527099609375 172 183 201
1255 113 956.5255126953125 167 175 196
1422 113 1057.874267578125 187 196 213
1534 113 1131.57275390625 167 173 195
1535 113 1132.572265625 159 165 187
1539 113 1134.5712890625 178 184 206
1540 113 1135.57080078125 189 198 215
1541 113 1136.5703125 181 193 209
1542 113 1137.56982421875 182 190 209
1587 113 1167.4664306640625 178 183 205
1591 113 1169.4656982421875 173 179 201
1592 113 1170.46533203125 180 186 208
1593 113 1171.46484375 180 188 209
1597 113 1172.4644775390625 176 184 207
1598 113 1173.464111328125 176 192 208
1599 113 1174.4637451171875 177 194 210
1678 113 1229.342041015625 172 179 207
1679 113 1230.341796875 183 190 216
1686 113 1235.3404541015625 184 203 220
1722 113 1259.2684326171875 175 190 209
1723 113 1260.2681884765625 167 184 202
1724 113 1261.26806640625 164 183 200
1725 113 1262.267822265625 159 180 197
1729 113 1263.267578125 148 163 184
1730 113 1264.267333984375 158 173 194
1731 113 1265.2672119140625 162 177 198
1733 113 1267.2667236328125 159 171 193
1796 113 1311.2196044921875 158 172 198
1824 113 1332.181640625 169 187 209
1825 113 1333.1815185546875 159 177 199
1852 113 1353.1629638671875 166 188 209
1887 113 1378.1309814453125 155 177 198
1888 113 1379.130859375 164 190 207
1892 113 1381.1307373046875 153 174 195
1893 113 1382.130615234375 162 180 202
1894 113 1383.1304931640625 152 170 192
1895 113 1384.13037109375 150 171 192
1901 113 1387.130126953125 144 160 185
700 114 705.8533935546875 95 97 96
702 114 707.5372924804688 106 108 107
703 114 708.526611328125 104 110 108
727 114 715.0272827148438 119 132 138
771 114 729.3455810546875 134 144 156
800 114 738.8761596679688 141 153 169
839 114 753.2761840820312 148 160 174
987 114 815.456298828125 147 159 175
988 114 816.4520874023438 150 158 177
1020 114 831.12451171875 158 166 187
1070 114 856.7030029296875 170 181 199
1073 114 857.6998291015625 159 167 188
1074 114 858.6967163085938 157 165 186
1077 114 858.6967163085938 165 176 196
1078 114 859.6935424804688 169 180 198
1105 114 874.4192504882812 175 188 207
1106 114 875.4164428710938 172 185 202
1109 114 876.4136962890625 165 176 196
1110 114 877.4109497070312 166 174 193
1113 114 878.408203125 166 177 197
1114 114 879.4054565429688 167 178 196
1117 114 879.4054565429688 168 179 199
1144 114 894.152099609375 175 188 205
1145 114 895.1497192382812 158 171 188
1155 114 900.1377563476562 176 187 207
1156 114 901.1353759765625 174 185 205
1205 114 928.8126831054688 166 177 197
1208 114 928.8126831054688 164 172 195
1209 114 929.8107299804688 164 172 195
1210 114 930.8087768554688 167 173 197
1216 114 934.801025390625 175 186 206
1240 114 948.5958251953125 188 196 215
1241 114 949.5941162109375 184 192 211
1244 114 950.5924682617188 173 184 202
1245 114 951.5907592773438 175 186 204
1248 114 952.589111328125 165 173 194
1249 114 953.5874633789062 165 173 194
1250 114 954.5857543945312 162 173 193
1253 114 954.5857543945312 173 184 204
1254 114 955.5841064453125 174 185 203
1255 114 956.5824584960938 171 182 202
1416 114 1054.91796875 187 192 212
1527 114 1126.6077880859375 157 158 186
1528 114 1127.607177734375 162 164 189
1529 114 1128.606689453125 170 172 197
1533 114 1130.6055908203125 177 182 204
1534 114 1131.6051025390625 178 189 207
1535 114 1132.6044921875 182 193 211
1586 114 1166.49560546875 178 183 205
1591 114 1169.494384765625 178 186 205
1592 114 1170.493896484375 191 204 220
1593 114 1171.4935302734375 190 206 219
1597 114 1172.4930419921875 177 188 208
1676 114 1227.36669921875 170 182 206
1679 114 1230.3658447265625 190 203 222
1716 114 1255.2904052734375 174 193 210
1717 114 1256.2901611328125 176 195 212
1718 114 1257.2899169921875 169 186 204
1722 114 1259.2894287109375 164 174 199
1723 114 1260.289306640625 154 166 190
1724 114 1261.2890625 158 173 194
1730 114 1264.288330078125 154 169 192
1731 114 1265.2880859375 158 173 196
1732 114 1266.287841796875 161 176 199
1733 114 1267.28759765625 159 174 197
1789 114 1307.2391357421875 156 170 197
1790 114 1308.2388916015625 151 165 192
1791 114 1309.23876953125 155 169 195
1885 114 1376.1453857421875 154 175 196
1886 114 1377.145263671875 146 164 188
1887 114 1378.1451416015625 149 167 191
1888 114 1379.14501953125 156 177 198
1893 114 1382.1446533203125 152 168 193
1894 114 1383.1446533203125 153 169 194
1895 114 1384.14453125 158 174 199
701 115 706.6943969726562 100 102 99
702 115 707.6835327148438 98 102 101
703 115 708.6727294921875 105 111 111
727 115 715.1677856445312 117 128 134
770 115 728.48681640625 128 138 150
771 115 729.4779052734375 134 144 156
839 115 753.3949584960938 138 152 165
987 115 815.5488891601562 146 157 175
1020 115 831.2117919921875 152 160 181
1068 115 854.7894287109375 163 171 192
1069 115 855.7861938476562 161 169 190
1070 115 856.782958984375 167 175 194
1073 115 857.7796630859375 165 173 194
1074 115 858.7764282226562 164 172 193
1077 115 858.7764282226562 175 186 206
1105 115 874.494140625 156 169 188
1106 115 875.4912719726562 153 164 184
1109 115 876.4884643554688 162 173 193
1110 115 877.485595703125 164 175 195
1139 115 892.2269897460938 185 196 214
1143 115 893.2244873046875 168 179 197
1144 115 894.2219848632812 163 174 194
1145 115 895.2195434570312 164 177 196
1155 115 900.2072143554688 182 193 213
1200 115 925.8817138671875 175 186 206
1204 115 927.877685546875 168 179 201
1208 115 928.8756713867188 180 188 209
1209 115 929.8736572265625 171 179 200
1210 115 930.8716430664062 166 174 197
1238 115 946.6577758789062 165 176 198
1239 115 947.6560668945312 171 179 202
1240 115 948.654296875 171 179 198
1241 115 949.652587890625 169 177 196
1243 115 949.652587890625 155 166 186
1244 115 950.6508178710938 157 168 188
1245 115 951.6491088867188 164 175 195
1248 115 952.6473388671875 168 176 197
1249 115 953.6456298828125 182 190 211
1250 115 954.6439208984375 176 187 205
1253 115 954.6439208984375 185 196 216
1408 115 1048.9656982421875 191 198 217
1409 115 1049.9647216796875 179 186 205
1410 115 1050.9638671875 171 173 196
1527 115 1126.6409912109375 174 175 203
1528 115 1127.6405029296875 179 181 206
1529 115 1128.639892578125 184 186 209
1534 115 1131.63818359375 193 205 221
1579 115 1161.5274658203125 166 170 195
1580 115 1162.5269775390625 173 179 201
1581 115 1163.5264892578125 179 187 208
1585 115 1165.525634765625 185 190 212
1586 115 1166.525146484375 187 194 213
1587 115 1167.5247802734375 188 196 215
1654 115 1212.3963623046875 168 184 200
1655 115 1213.3961181640625 167 180 199
1716 115 1255.312255859375 164 181 199
1717 115 1256.31201171875 160 177 195
1718 115 1257.311767578125 153 168 189
1722 115 1259.311279296875 159 166 194
1723 115 1260.31103515625 164 174 199
1724 115 1261.310791015625 155 167 191
1730 115 1264.31005859375 168 183 206
1731 115 1265.309814453125 169 185 208
1732 115 1266.3095703125 166 183 203
1783 115 1303.2593994140625 154 170 193
1816 115 1326.2171630859375 154 170 195
1817 115 1327.217041015625 155 173 195
1885 115 1376.1602783203125 150 168 192
1886 115 1377.16015625 151 167 192
1887 115 1378.1600341796875 150 166 191
699 116 704.864501953125 71 75 76
700 116 705.8533935546875 80 82 81
701 116 706.84228515625 101 103 102
702 116 707.8311767578125 102 106 107
727 116 715.3097534179688 110 119 128
775 116 731.460205078125 141 150 165
1012 116 828.3121337890625 155 166 184
1019 116 830.3041381835938 167 178 196
1068 116 854.8707275390625 152 158 180
1069 116 855.8673706054688 159 167 188
1070 116 856.8640747070312 166 174 193
1073 116 857.8607177734375 164 175 195
1074 116 858.8573608398438 170 181 199
1104 116 873.5731201171875 150 161 181
1105 116 874.5701904296875 160 171 193
1109 116 876.5643310546875 173 184 204
1135 116 890.3033447265625 177 190 207
1138 116 891.3007202148438 166 177 197
1139 116 892.2981567382812 169 180 200
1143 116 893.2955932617188 159 170 190
1144 116 894.2930297851562 159 170 192
1145 116 895.2904663085938 156 167 187
1199 116 924.9481201171875 162 170 191
1200 116 925.9459838867188 159 170 192
1204 116 927.9418334960938 173 181 204
1239 116 947.7156982421875 167 175 198
1240 116 948.7138671875 167 175 196
1241 116 949.7120361328125 168 176 197
1244 116 950.7102661132812 172 180 201
1245 116 951.7084350585938 174 182 203
1246 116 952.7066650390625 167 175 198
1344 116 1009.2393188476562 175 181 203
1402 116 1046.011962890625 187 195 214
1403 116 1047.010986328125 187 196 213
1407 116 1048.010009765625 197 204 222
1457 116 1080.855712890625 184 191 209
1527 116 1126.6751708984375 182 186 211
1579 116 1161.5579833984375 176 182 204
1580 116 1162.5574951171875 182 193 211
1581 116 1163.5570068359375 184 197 213
1585 116 1165.5560302734375 180 188 207
1586 116 1166.5556640625 191 203 219
1587 116 1167.55517578125 195 207 221
1653 116 1211.4227294921875 164 172 195
1654 116 1212.42236328125 165 172 198
1655 116 1213.4219970703125 165 172 198
1716 116 1255.3349609375 163 175 197
1717 116 1256.334716796875 158 170 192
1718 116 1257.33447265625 155 165 190
1723 116 1260.333740234375 164 174 199
1724 116 1261.3333740234375 168 180 202
1725 116 1262.3331298828125 171 186 207
1778 116 1300.2803955078125 147 161 187
1815 116 1325.23583984375 153 169 195
1816 116 1326.235595703125 152 168 193
1886 116 1377.17578125 155 171 196
699 117 705.01416015625 70 71 73
700 117 706.0028076171875 77 77 77
701 117 706.9915161132812 88 90 89
727 117 715.4530029296875 118 127 136
790 117 736.2852783203125 136 145 160
979 117 812.7515258789062 148 156 175
1012 117 828.402099609375 152 163 181
1015 117 829.39794921875 161 172 192
1068 117 854.9531860351562 156 162 186
1069 117 855.9497680664062 173 181 202
1070 117 856.9463500976562 172 180 199
1104 117 873.650390625 155 166 188
1105 117 874.6473388671875 175 186 208
1131 117 888.381103515625 179 192 209
1134 117 889.37841796875 165 176 194
1135 117 890.3757934570312 166 179 196
1138 117 891.3731079101562 158 169 189
1139 117 892.3704223632812 159 170 190
1143 117 893.3677978515625 177 188 208
1144 117 894.3651123046875 172 183 203
1198 117 924.0156860351562 163 171 194
1199 117 925.0134887695312 173 181 204
1200 117 926.0113525390625 172 183 203
1239 117 947.7763671875 169 177 200
1240 117 948.7744750976562 176 184 205
1241 117 949.7725830078125 173 181 202
1243 117 949.7725830078125 167 175 198
1244 117 950.770751953125 187 195 216
1245 117 951.7688598632812 189 197 218
1401 117 1045.057373046875 184 191 210
1402 117 1046.056396484375 187 199 215
1403 117 1047.055419921875 182 194 210
1511 117 1115.71728515625 170 177 195
1512 117 1116.7166748046875 162 169 188
1577 117 1159.5904541015625 183 188 210
1579 117 1161.5894775390625 184 190 212
1580 117 1162.5888671875 188 199 217
1581 117 1163.58837890625 188 201 217
1652 117 1210.449951171875 171 178 204
1653 117 1211.4495849609375 162 169 195
1654 117 1212.44921875 157 164 190
1655 117 1213.4488525390625 161 168 194
1716 117 1255.3585205078125 161 173 195
1717 117 1256.3582763671875 166 178 200
1718 117 1257.35791015625 167 177 202
1723 117 1260.3570556640625 174 189 210
1724 117 1261.3568115234375 188 203 222
1775 117 1297.30224609375 148 162 188
827 118 748.7977294921875 144 156 170
1011 118 827.4974365234375 156 167 185
1012 118 828.4932250976562 159 171 187
1053 118 847.0655517578125 169 180 200
1054 118 848.0618896484375 171 184 201
1055 118 849.0582885742188 163 176 192
1093 118 867.7476806640625 167 178 198
1094 118 868.7445068359375 168 179 197
1130 118 887.4575805664062 167 178 196
1131 118 888.454833984375 163 174 192
1134 118 889.4520874023438 163 174 194
1135 118 890.4493408203125 162 173 193
1139 118 892.44384765625 172 183 203
1199 118 925.0800170898438 186 194 215
1200 118 926.0777587890625 185 196 214
1226 118 939.8536987304688 184 195 215
1227 118 940.8517456054688 178 189 209
1239 118 947.8380737304688 176 184 205
1240 118 948.8361206054688 187 198 216
1241 118 949.8341674804688 181 193 209
1396 118 1042.1060791015625 193 200 218
1397 118 1043.10498046875 193 202 219
1398 118 1044.1038818359375 185 192 211
1449 118 1075.94140625 186 195 212
1450 118 1076.9405517578125 193 205 217
1505 118 1112.755615234375 176 181 201
1511 118 1115.7535400390625 172 174 195
1512 118 1116.7529296875 172 177 197
1513 118 1117.752197265625 182 189 208
1564 118 1151.6270751953125 174 179 201
1565 118 1152.6265869140625 174 179 201
1653 118 1211.4771728515625 171 183 205
1654 118 1212.476806640625 177 189 211
1655 118 1213.4764404296875 186 198 220
1716 118 1255.3828125 167 182 203
1797 118 1312.27783203125 162 183 204
1798 118 1313.277587890625 155 173 195
1824 118 1332.2537841796875 167 192 212
1825 118 1333.2535400390625 164 189 209
1860 118 1358.2120361328125 163 189 206
1861 118 1359.2119140625 164 187 205
710 119 710.7981567382812 121 135 138
781 119 732.58447265625 132 146 159
823 119 747.9304809570312 148 160 176
965 119 805.9801635742188 172 181 196
1049 119 846.1548461914062 175 186 204
1050 119 847.151123046875 177 186 203
1054 119 848.1473999023438 154 167 184
1093 119 867.8277587890625 169 180 200
1094 119 868.824462890625 172 180 199
1129 119 886.535400390625 155 166 186
1130 119 887.5325317382812 165 176 194
1131 119 888.5296630859375 162 173 191
1134 119 889.52685546875 164 175 195
1135 119 890.5239868164062 167 180 199
1138 119 891.5211791992188 176 187 207
1139 119 892.5183715820312 186 197 217
1225 119 938.9190673828125 169 177 200
1226 119 939.9169921875 170 181 201
1227 119 940.9149780273438 162 173 193
1391 119 1039.1558837890625 184 191 210
1392 119 1040.15478515625 183 195 209
1393 119 1041.1536865234375 176 188 202
1443 119 1071.9874267578125 186 191 213
1499 119 1108.7957763671875 179 186 205
1504 119 1111.7935791015625 166 168 191
1505 119 1112.7928466796875 178 180 203
1510 119 1114.79150390625 180 182 203
1511 119 1115.790771484375 188 190 211
1512 119 1116.7900390625 191 198 216
1513 119 1117.789306640625 182 191 208
1562 119 1149.6617431640625 182 184 207
1563 119 1150.6611328125 184 189 211
1564 119 1151.6605224609375 185 193 212
1636 119 1199.5107421875 164 177 194
1637 119 1200.51025390625 161 172 192
1691 119 1237.413818359375 175 192 208
1692 119 1238.4134521484375 165 184 199
1693 119 1239.4132080078125 164 183 198
1758 119 1285.35009765625 157 176 193
1858 119 1356.23046875 146 167 188
1859 119 1357.230224609375 149 170 191
1860 119 1358.2301025390625 151 172 193
1861 119 1359.22998046875 148 169 190
700 120 706.305908203125 85 85 83
820 120 747.06494140625 138 150 164
997 120 820.7149047851562 162 170 189
998 120 821.7103881835938 156 163 182
1049 120 846.24169921875 159 167 186
1050 120 847.2378540039062 159 167 186
1053 120 847.2378540039062 159 172 191
1054 120 848.2340698242188 156 167 187
1129 120 886.6115112304688 157 169 191
1130 120 887.6085815429688 165 176 196
1131 120 888.6056518554688 175 183 202
1134 120 889.6027221679688 173 186 203
1181 120 914.2428588867188 168 176 199
1182 120 915.2404174804688 169 177 198
1218 120 936.9877319335938 180 191 209
1221 120 937.985595703125 167 173 197
1223 120 939.9813842773438 165 171 195
1225 120 938.9835205078125 165 173 196
1226 120 939.9813842773438 167 178 198
1227 120 940.979248046875 171 182 202
1284 120 973.6698608398438 169 177 198
1326 120 998.4613037109375 181 189 208
1390 120 1038.2047119140625 182 189 208
1391 120 1039.2034912109375 188 196 215
1499 120 1108.8341064453125 166 170 195
1500 120 1109.8333740234375 165 170 192
1505 120 1112.8310546875 180 185 207
1506 120 1113.830322265625 191 198 216
1562 120 1149.696044921875 183 190 209
1563 120 1150.6954345703125 189 201 217
1564 120 1151.69482421875 190 206 219
1636 120 1199.540283203125 166 174 197
1637 120 1200.5399169921875 158 166 189
1638 120 1201.5394287109375 168 172 199
1684 120 1233.4415283203125 175 194 211
1685 120 1234.441162109375 182 201 218
1686 120 1235.4407958984375 177 196 213
1690 120 1236.4404296875 167 179 203
1691 120 1237.4400634765625 163 175 197
1692 120 1238.439697265625 157 169 191
1693 120 1239.4393310546875 157 169 191
1756 120 1283.37451171875 163 175 199
1757 120 1284.3741455078125 152 167 190
1789 120 1307.3216552734375 156 170 196
1790 120 1308.3214111328125 152 166 192
1791 120 1309.3211669921875 151 167 192
1798 120 1313.3201904296875 160 181 202
1851 120 1352.25 166 182 207
1852 120 1353.249755859375 159 177 201
1853 120 1354.2496337890625 155 175 199
1858 120 1356.249267578125 157 173 198
1859 120 1357.2490234375 150 166 191
1860 120 1358.2489013671875 145 163 187
699 121 705.4714965820312 71 75 74
700 121 706.45947265625 80 80 78
701 121 707.1421508789062 103 103 101
702 121 708.130615234375 110 112 111
703 121 709.1192016601562 110 116 116
775 121 731.8640747070312 133 145 159
848 121 757.7288208007812 143 155 169
961 121 805.1863403320312 154 163 180
964 121 805.1863403320312 149 157 176
965 121 806.1810913085938 150 158 177
998 121 821.805908203125 152 160 179
1043 121 842.3455200195312 173 184 202
1044 121 843.341552734375 157 168 188
1045 121 844.3375854492188 157 170 189
1049 121 846.3297119140625 151 159 178
1050 121 847.3258056640625 163 171 190
1053 121 847.3258056640625 156 169 188
1054 121 848.3218994140625 167 178 198
1055 121 849.3179321289062 168 179 199
1077 121 859.022705078125 171 182 202
1078 121 860.0191650390625 175 186 204
1079 121 861.0156860351562 161 173 189
1117 121 879.710205078125 159 170 190
1118 121 880.7070922851562 168 181 198
1119 121 881.7040405273438 158 171 188
1129 121 886.6887817382812 173 185 207
1130 121 887.6857299804688 180 191 211
1177 121 913.31591796875 167 175 196
1178 121 914.3134155273438 164 175 193
1181 121 914.3134155273438 160 168 191
1182 121 915.3108520507812 159 167 190
1216 121 935.0577392578125 164 172 193
1217 121 936.0555419921875 162 170 191
1221 121 938.0511474609375 165 172 198
1222 121 939.0490112304688 171 179 202
1225 121 939.0490112304688 161 169 192
1226 121 940.0468139648438 180 191 211
1227 121 941.0446166992188 177 188 208
1321 121 996.5189208984375 179 190 208
1322 121 997.5173950195312 178 185 204
1492 121 1103.877197265625 171 173 196
1494 121 1105.8756103515625 171 176 196
1499 121 1108.873291015625 182 186 211
1500 121 1109.87255859375 183 189 211
1504 121 1111.8709716796875 176 181 203
1505 121 1112.8701171875 195 202 221
1506 121 1113.869384765625 190 199 216
1564 121 1151.72998046875 176 192 207
1629 121 1195.5726318359375 165 171 193
1630 121 1196.5721435546875 168 174 198
1636 121 1199.57080078125 172 183 205
1637 121 1200.5703125 174 185 207
1638 121 1201.56982421875 172 180 203
1680 121 1231.469482421875 174 193 208
1684 121 1233.4686279296875 161 178 198
1685 121 1234.46826171875 162 179 199
1686 121 1235.4678955078125 158 176 196
1687 121 1236.467529296875 151 167 190
1691 121 1237.4671630859375 167 177 202
1692 121 1238.466796875 164 174 199
1693 121 1239.4664306640625 161 173 197
1782 121 1302.3455810546875 150 166 191
1783 121 1303.3453369140625 159 175 198
1844 121 1347.2706298828125 160 182 205
1845 121 1348.2703857421875 164 186 209
1846 121 1349.2701416015625 169 196 215
1851 121 1352.26953125 153 167 193
1852 121 1353.2694091796875 153 171 195
1859 121 1357.2685546875 150 167 193
1860 121 1358.2684326171875 144 164 188
700 122 706.305908203125 76 78 75
701 122 707.2941284179688 96 96 94
702 122 708.2824096679688 103 105 104
771 122 730.0205688476562 136 145 162
847 122 756.8599853515625 134 146 162
957 122 803.2994384765625 159 167 186
961 122 805.2887573242188 158 165 184
996 122 819.9121704101562 158 167 184
1043 122 842.4351806640625 159 170 188
1044 122 843.4310913085938 151 162 182
1045 122 844.427001953125 159 170 190
1049 122 846.4189453125 157 165 184
1050 122 847.4149169921875 176 187 205
1073 122 858.1107177734375 186 194 215
1074 122 859.1071166992188 177 185 204
1077 122 859.1071166992188 168 176 197
1078 122 860.1034545898438 175 183 202
1079 122 861.099853515625 155 163 182
1114 122 879.7891845703125 164 175 195
1117 122 879.7891845703125 161 172 194
1118 122 880.7860107421875 161 172 192
1119 122 881.7828369140625 162 175 194
1173 122 911.3928833007812 165 176 194
1174 122 912.3902587890625 173 184 202
1177 122 913.3876342773438 166 177 197
1178 122 914.385009765625 170 178 199
1181 122 914.385009765625 176 187 209
1182 122 915.3824462890625 175 186 208
1183 122 916.3798217773438 171 182 202
1209 122 930.135986328125 189 198 215
1210 122 931.1337280273438 168 179 197
1211 122 932.1314086914062 164 175 195
1216 122 935.1245727539062 157 164 190
1221 122 938.1177978515625 170 181 203
1377 122 1030.3131103515625 185 197 213
1490 122 1101.919189453125 170 172 195
1492 122 1103.9176025390625 177 177 203
1493 122 1104.916748046875 180 182 205
1546 122 1138.7747802734375 172 174 197
1547 122 1139.7740478515625 170 175 197
1548 122 1140.7734375 165 170 192
1622 122 1190.6065673828125 175 181 203
1623 122 1191.6060791015625 171 179 200
1624 122 1192.6055908203125 162 168 192
1628 122 1194.6044921875 165 166 194
1629 122 1195.60400390625 172 176 203
1630 122 1196.603515625 179 185 209
1635 122 1198.6025390625 179 196 214
1636 122 1199.60205078125 180 199 214
1676 122 1227.4990234375 172 185 204
1677 122 1228.4986572265625 173 185 207
1678 122 1229.498291015625 164 179 200
1679 122 1230.4979248046875 160 175 196
1680 122 1231.4974365234375 159 174 195
1684 122 1233.4967041015625 157 169 193
1685 122 1234.4962158203125 156 168 194
1686 122 1235.495849609375 149 161 187
1687 122 1236.4954833984375 157 168 196
1691 122 1237.4949951171875 174 184 209
1692 122 1238.49462890625 172 184 206
1693 122 1239.4942626953125 171 186 207
1694 122 1240.493896484375 171 188 208
1776 122 1298.3701171875 161 173 195
1777 122 1299.369873046875 164 176 198
1842 122 1345.2913818359375 155 177 198
1843 122 1346.291259765625 150 170 194
1844 122 1347.291015625 155 172 198
1851 122 1352.2899169921875 161 175 202
1852 122 1353.2896728515625 160 176 201
1859 122 1357.288818359375 157 179 202
699 123 705.4714965820312 60 66 66
700 123 706.45947265625 83 85 84
701 123 707.447509765625 90 90 90
702 123 708.4356079101562 94 98 97
703 123 709.4237060546875 101 107 107
808 123 742.4957885742188 142 154 170
840 123 755.0006713867188 148 160 174
954 123 802.4088745117188 154 162 181
957 123 803.4033813476562 153 161 180
987 123 816.030029296875 150 161 179
988 123 817.0250854492188 149 157 176
1035 123 839.53857421875 171 183 199
1044 123 843.5217895507812 153 164 184
1045 123 844.5176391601562 161 172 190
1070 123 857.2000732421875 176 184 203
1073 123 858.1963500976562 173 181 202
1074 123 859.192626953125 167 175 194
1077 123 859.192626953125 159 167 188
1078 123 860.1889038085938 158 166 185
1109 123 876.879150390625 164 175 195
1110 123 877.8758544921875 165 177 193
1113 123 878.87255859375 155 166 188
1114 123 879.8693237304688 160 171 191
1115 123 880.8660278320312 165 176 196
1117 123 879.8693237304688 161 172 192
1118 123 880.8660278320312 168 179 199
1119 123 881.86279296875 163 176 195
1172 123 910.4685668945312 163 171 192
1173 123 911.4658813476562 170 181 201
1174 123 912.463134765625 168 179 197
1177 123 913.46044921875 174 185 205
1178 123 914.457763671875 180 188 209
1205 123 929.2066650390625 175 186 204
1208 123 929.2066650390625 172 180 199
1209 123 930.2042846679688 173 182 199
1210 123 931.201904296875 157 168 188
1211 123 932.1995239257812 159 170 190
1221 123 938.1854858398438 171 183 205
1222 123 939.1831665039062 186 199 218
1375 123 1028.36669921875 183 191 212
1376 123 1029.3653564453125 191 205 218
1377 123 1030.364013671875 185 197 211
1483 123 1097.9639892578125 168 175 193
1484 123 1098.963134765625 167 174 193
1490 123 1101.9605712890625 183 188 210
1540 123 1135.814208984375 171 176 196
1541 123 1136.8134765625 172 177 199
1545 123 1137.8128662109375 188 190 213
1546 123 1138.8121337890625 185 192 211
1547 123 1139.8114013671875 178 185 204
1548 123 1140.8106689453125 171 178 197
1616 123 1186.64111328125 163 179 195
1617 123 1187.6405029296875 161 176 195
1618 123 1188.6400146484375 160 171 191
1623 123 1191.638427734375 171 177 201
1624 123 1192.6378173828125 165 171 195
1629 123 1195.63623046875 189 195 221
1630 123 1196.6357421875 191 199 222
1676 123 1227.5279541015625 164 172 195
1677 123 1228.527587890625 165 173 196
1678 123 1229.527099609375 160 171 193
1679 123 1230.5267333984375 159 171 193
1680 123 1231.5262451171875 159 171 195
1685 123 1234.5250244140625 160 172 198
1686 123 1235.5245361328125 169 183 209
1687 123 1236.524169921875 174 188 214
1774 123 1296.39501953125 158 168 195
1775 123 1297.3946533203125 163 173 200
1798 123 1313.3658447265625 177 204 221
1832 123 1338.314208984375 161 188 207
1833 123 1339.31396484375 160 187 204
1839 123 1342.3133544921875 162 178 201
1840 123 1343.3131103515625 154 175 196
1841 123 1344.3128662109375 147 168 189
1842 123 1345.3126220703125 155 175 199
1902 123 1388.2435302734375 169 195 212
1903 123 1389.2432861328125 149 175 192
699 124 705.6266479492188 65 69 72
700 124 706.6144409179688 80 80 80
701 124 707.602294921875 88 88 88
839 124 754.13525390625 139 151 167
988 124 817.1248168945312 139 147 168
1034 124 838.6351928710938 155 166 184
1035 124 839.630859375 154 165 183
1069 124 856.2908325195312 169 177 198
1070 124 857.2869873046875 166 174 193
1073 124 858.2831420898438 159 167 188
1074 124 859.2793579101562 154 162 181
1077 124 859.2793579101562 172 178 200
1105 124 874.9674072265625 162 175 194
1109 124 876.9606323242188 158 169 189
1110 124 877.957275390625 159 170 188
1113 124 878.9539184570312 163 176 195
1114 124 879.9505615234375 175 186 204
1115 124 880.9472045898438 164 175 193
1118 124 880.9472045898438 178 191 208
1172 124 910.542724609375 162 173 193
1173 124 911.5399169921875 180 191 211
1174 124 912.537109375 170 181 199
1200 124 926.283447265625 184 195 213
1204 124 928.2785034179688 180 188 209
1205 124 929.2760620117188 170 178 199
1208 124 929.2760620117188 169 177 198
1209 124 930.2736206054688 163 174 194
1210 124 931.2711791992188 163 171 192
1367 124 1025.4228515625 184 193 210
1370 124 1026.4215087890625 190 199 216
1371 124 1027.4200439453125 189 201 217
1478 124 1095.0091552734375 173 178 198
1483 124 1098.00634765625 175 180 202
1484 124 1099.0054931640625 172 179 198
1485 124 1100.0045166015625 177 184 203
1533 124 1130.8563232421875 162 164 187
1534 124 1131.8555908203125 161 166 188
1535 124 1132.8548583984375 166 171 193
1539 124 1134.853271484375 181 186 206
1540 124 1135.8525390625 183 192 209
1541 124 1136.851806640625 181 190 207
1544 124 1136.851806640625 179 186 205
1545 124 1137.85107421875 188 197 214
1546 124 1138.850341796875 183 195 209
1547 124 1139.849609375 177 189 203
1616 124 1186.67431640625 163 169 195
1617 124 1187.673828125 163 170 196
1618 124 1188.6732177734375 157 164 190
1622 124 1190.672119140625 179 187 210
1623 124 1191.6715087890625 178 189 209
1624 124 1192.6708984375 184 195 215
1677 124 1228.5572509765625 164 170 196
1678 124 1229.556884765625 166 173 199
1679 124 1230.556396484375 166 176 201
1680 124 1231.555908203125 166 178 204
1684 124 1233.5550537109375 168 183 206
1685 124 1234.5545654296875 177 194 214
1686 124 1235.5540771484375 182 203 222
1687 124 1236.5537109375 180 201 220
1731 124 1265.484130859375 165 180 201
1825 124 1333.3375244140625 175 201 218
1832 124 1338.3363037109375 158 180 201
1833 124 1339.3360595703125 151 173 194
1901 124 1387.2628173828125 151 169 189
1902 124 1388.2625732421875 161 179 201
1903 124 1389.262451171875 156 174 196
1904 124 1390.26220703125 147 165 187
1905 124 1391.261962890625 143 164 185
734 125 718.0173950195312 126 135 144
800 125 739.7898559570312 144 156 172
944 125 797.649658203125 161 170 187
976 125 812.2518310546875 165 178 194
983 125 815.2361450195312 156 164 183
1034 125 838.7288208007812 156 167 185
1035 125 839.724365234375 163 174 192
1069 125 856.3790283203125 155 163 184
1070 125 857.3750610351562 160 168 187
1073 125 858.3711547851562 168 179 199
1074 125 859.3671875 169 177 196
1105 125 875.05029296875 160 171 191
1106 125 876.0468139648438 156 164 185
1109 125 877.0433349609375 166 177 197
1110 125 878.0398559570312 168 179 197
1113 125 879.036376953125 172 185 204
1114 125 880.032958984375 188 199 217
1172 125 910.617919921875 175 186 206
1198 125 924.3592529296875 167 178 198
1199 125 925.356689453125 174 185 205
1200 125 926.3541259765625 174 185 203
1204 125 928.3490600585938 168 176 197
1205 125 929.3465576171875 158 166 187
1208 125 929.3465576171875 176 184 205
1210 125 931.3414916992188 167 175 198
1365 125 1023.4788818359375 186 193 212
1366 125 1024.4774169921875 195 207 221
1417 125 1056.28076171875 197 206 223
1418 125 1057.279541015625 185 197 211
1477 125 1094.053466796875 171 169 193
1478 125 1095.052490234375 168 169 190
1482 125 1097.050537109375 174 176 199
1483 125 1098.0496826171875 186 191 213
1484 125 1099.0487060546875 185 193 212
1485 125 1100.0477294921875 185 192 211
1527 125 1126.8988037109375 166 168 191
1528 125 1127.8980712890625 159 161 184
1529 125 1128.897216796875 167 169 192
1530 125 1129.896484375 174 174 198
1533 125 1130.8956298828125 168 170 193
1534 125 1131.8948974609375 182 187 209
1535 125 1132.89404296875 183 189 211
1539 125 1134.8924560546875 183 190 208
1540 125 1135.8917236328125 186 198 212
1541 125 1136.8909912109375 183 195 209
1616 125 1186.70849609375 174 180 206
1617 125 1187.7078857421875 178 184 210
1618 125 1188.707275390625 178 186 209
1619 125 1189.7066650390625 182 190 213
1624 125 1192.7049560546875 195 211 227
1678 125 1229.5872802734375 179 186 212
1679 125 1230.5867919921875 177 187 212
1680 125 1231.58642578125 177 192 215
1759 125 1286.4493408203125 155 173 193
1818 125 1328.36181640625 170 196 213
1819 125 1329.3614501953125 166 192 207
1824 125 1332.3607177734375 169 190 211
1825 125 1333.3604736328125 158 180 201
1826 125 1334.360107421875 146 171 191
1842 125 1345.357177734375 159 177 199
1894 125 1383.283447265625 153 179 196
1895 125 1384.283203125 156 183 200
1896 125 1385.282958984375 146 175 191
1901 125 1387.2825927734375 142 160 182
1902 125 1388.2823486328125 149 165 188
1903 125 1389.2822265625 145 161 184
1904 125 1390.281982421875 140 158 182
1905 125 1391.28173828125 143 161 185
699 126 705.9412231445312 72 76 77
800 126 739.9256591796875 138 150 166
801 126 740.9163208007812 137 149 165
944 126 797.7581176757812 156 164 183
979 126 813.3492431640625 149 162 179
1034 126 838.8236083984375 168 180 196
1035 126 839.8190307617188 174 186 202
1069 126 856.4683227539062 173 181 202
1070 126 857.4642944335938 167 178 196
1105 126 875.13427734375 169 180 200
1110 126 878.1235961914062 184 197 213
1156 126 901.7211303710938 176 187 205
1157 126 902.7181396484375 155 168 185
1199 126 925.4285278320312 165 173 196
1200 126 926.4259033203125 165 173 196
1204 126 928.4207153320312 176 187 207
1360 126 1020.53759765625 182 190 211
1361 126 1021.5360717773438 185 196 214
1362 126 1022.5346069335938 186 197 215
1477 126 1094.0977783203125 182 184 205
1478 126 1095.0968017578125 190 195 214
1527 126 1126.939208984375 170 172 195
1528 126 1127.9383544921875 181 183 206
1529 126 1128.9375 184 189 209
1530 126 1129.936767578125 177 182 202
1533 126 1130.9359130859375 182 189 207
1534 126 1131.93505859375 191 203 219
1535 126 1132.9342041015625 181 193 209
1536 126 1133.9334716796875 185 192 210
1600 126 1175.7503662109375 167 178 198
1653 126 1211.6278076171875 181 196 215
1655 126 1213.6268310546875 181 199 213
1656 126 1214.626220703125 178 196 210
1718 126 1257.54443359375 172 184 206
1756 126 1283.477294921875 158 174 199
1757 126 1284.4769287109375 155 171 196
1816 126 1326.3861083984375 159 180 201
1817 126 1327.3857421875 163 184 205
1818 126 1328.385498046875 167 185 205
1819 126 1329.38525390625 164 181 201
1824 126 1332.38427734375 152 168 193
1841 126 1344.380859375 175 193 213
1886 126 1377.3052978515625 159 181 202
1887 126 1378.30517578125 153 175 196
1888 126 1379.304931640625 164 186 207
1889 126 1380.3046875 150 176 193
1894 126 1383.303955078125 148 166 190
1895 126 1384.3038330078125 141 161 185
1896 126 1385.3035888671875 138 160 183
1901 126 1387.3031005859375 137 155 179
1902 126 1388.302978515625 150 170 194
1904 126 1390.302490234375 140 161 182
727 127 716.3413696289062 123 133 143
796 127 739.0723876953125 140 153 169
943 127 796.8739013671875 157 165 184
975 127 811.464111328125 157 169 185
1019 127 830.957275390625 168 180 196
1020 127 831.9525146484375 167 180 196
1021 127 832.94775390625 147 160 177
1054 127 848.5923461914062 180 192 208
1055 127 849.588134765625 172 184 200
1093 127 868.245361328125 172 183 203
1094 127 869.2416381835938 174 182 201
1105 127 875.2194213867188 173 184 204
1106 127 876.2156982421875 183 191 210
1155 127 900.8024291992188 161 172 192
1156 127 901.79931640625 163 174 192
1157 127 902.7962036132812 154 167 184
1199 127 925.50146484375 177 185 208
1200 127 926.498779296875 175 183 206
1203 127 927.49609375 180 191 213
1253 127 955.1466064453125 168 174 198
1527 127 1126.98046875 182 184 207
1528 127 1127.9796142578125 190 195 215
1529 127 1128.978759765625 192 199 217
1598 127 1173.787841796875 166 174 195
1599 127 1174.7872314453125 163 171 192
1600 127 1175.7864990234375 155 161 185
1652 127 1210.6610107421875 172 184 206
1653 127 1211.660400390625 170 183 202
1654 127 1212.659912109375 165 181 197
1655 127 1213.6593017578125 165 181 197
1717 127 1256.57470703125 155 166 188
1718 127 1257.57421875 155 163 186
1750 127 1280.506103515625 158 176 198
1757 127 1284.5045166015625 162 178 203
1817 127 1327.4102783203125 161 179 201
1818 127 1328.409912109375 152 168 191
1833 127 1339.4066162109375 166 188 209
1886 127 1377.3267822265625 140 158 180
1887 127 1378.3265380859375 142 162 186
1888 127 1379.3262939453125 138 158 182
1894 127 1383.3253173828125 151 168 194
1895 127 1384.3250732421875 136 156 181
1896 127 1385.3248291015625 143 160 186
1897 127 1386.3245849609375 142 162 187
1901 127 1387.324462890625 147 167 191
1903 127 1389.323974609375 155 182 201
1904 127 1390.32373046875 161 188 205
752 128 723.9509887695312 134 144 156
965 128 806.5977783203125 161 174 190
1016 128 831.0553588867188 169 181 197
1019 128 831.0553588867188 154 165 183
1020 128 832.0504760742188 159 170 188
1021 128 833.0455932617188 149 160 180
1050 128 847.689208984375 170 183 200
1054 128 848.6848754882812 154 165 183
1055 128 849.6805419921875 152 160 179
1093 128 868.3323364257812 157 168 188
1094 128 869.3284912109375 164 172 193
1155 128 900.8817749023438 172 183 203
1156 128 901.8786010742188 176 187 205
1157 128 902.8754272460938 174 187 204
1183 128 916.6007690429688 182 191 208
1248 128 953.21875 173 181 202
1292 128 979.9632568359375 183 191 210
1293 128 980.9612426757812 169 177 196
1527 128 1127.0225830078125 186 191 211
1528 128 1128.021728515625 189 196 212
1592 128 1170.8270263671875 167 173 195
1593 128 1171.8262939453125 165 173 194
1598 128 1173.824951171875 164 170 194
1599 128 1174.82421875 173 181 204
1600 128 1175.823486328125 178 184 206
1601 128 1176.8228759765625 172 178 202
1647 128 1208.695556640625 169 180 200
1653 128 1211.69384765625 163 174 196
1654 128 1212.6932373046875 164 175 197
1655 128 1213.6927490234375 169 180 202
1758 128 1285.5325927734375 172 193 212
1816 128 1326.435791015625 156 172 197
1817 128 1327.435546875 161 177 202
1886 128 1377.348876953125 145 161 187
1888 128 1379.348388671875 145 165 190
1893 128 1382.34765625 148 165 191
1894 128 1383.347412109375 157 177 202
1895 128 1384.34716796875 155 177 200
1896 128 1385.346923828125 143 163 188
1901 128 1387.346435546875 150 172 193
1905 128 1391.3453369140625 156 188 199
821 129 748.8424682617188 140 152 168
931 129 792.12939453125 155 164 181
961 129 805.7108764648438 158 166 185
1011 129 828.169677734375 165 173 192
1012 129 829.1646118164062 168 177 194
1016 129 831.1546020507812 158 166 185
1019 129 831.1546020507812 162 173 191
1020 129 832.1495971679688 160 171 189
1021 129 833.1446533203125 153 166 185
1050 129 847.7830200195312 155 168 185
1053 129 847.7830200195312 159 172 191
1054 129 848.778564453125 163 174 194
1055 129 849.7741088867188 160 168 189
1093 129 868.42041015625 173 184 204
1094 129 869.4164428710938 169 180 200
1144 129 894.9821166992188 163 174 194
1145 129 895.9788208007812 158 171 188
1178 129 914.6824340820312 187 198 216
1181 129 914.6824340820312 171 177 199
1182 129 915.6795043945312 183 191 210
1183 129 916.6766357421875 170 178 197
1347 129 1012.7200927734375 184 196 212
1456 129 1080.2523193359375 166 168 189
1457 129 1081.2510986328125 170 172 193
1510 129 1115.0771484375 169 171 196
1511 129 1116.076171875 177 181 206
1512 129 1117.0751953125 177 183 205
