ply
format ascii 1.0
element vertex 1234
property float x
property float y
property float z
property float red
property float green
property float blue
end_header
1355 549 1079.067138671875 195 201 217
1368 549 1086.625 206 207 227
1369 549 1087.5701904296875 207 210 229
1370 549 1088.5155029296875 209 215 231
1375 549 1091.3519287109375 203 212 227
1376 549 1092.297607421875 201 208 224
1380 549 1094.189208984375 207 216 231
1381 549 1095.1351318359375 201 213 227
1385 549 1096.0811767578125 205 217 231
1386 549 1097.02734375 201 210 225
1700 549 1297.3826904296875 171 179 202
1701 549 1298.345458984375 174 182 205
1702 549 1299.3082275390625 176 183 209
1707 549 1301.2340087890625 176 189 208
1708 549 1302.197021484375 172 179 205
1709 549 1303.1600341796875 171 178 204
1732 549 1318.5758056640625 182 199 219
1733 549 1319.5396728515625 172 193 212
1734 549 1320.503662109375 176 194 216
1735 549 1321.4677734375 177 193 216
1740 549 1324.3602294921875 179 202 220
1741 549 1325.324462890625 175 200 220
1748 549 1329.18212890625 191 210 227
1749 549 1330.1466064453125 188 205 223
712 550 799.7024536132812 91 89 90
1129 550 958.750244140625 180 182 203
1141 550 965.2445068359375 188 193 212
1142 550 966.1728515625 192 197 216
1146 550 968.0299682617188 185 190 209
1150 550 969.8876342773438 195 202 220
1155 550 971.745849609375 194 203 220
1166 550 977.3239135742188 200 212 226
1167 550 978.2540283203125 201 213 227
1325 550 1062.42041015625 195 198 217
1330 550 1065.2474365234375 201 207 223
1335 550 1067.132568359375 197 204 220
1336 550 1068.0753173828125 191 194 211
1354 550 1078.45263671875 202 212 224
1355 550 1079.3966064453125 205 217 229
1368 550 1086.9521484375 203 209 223
1369 550 1087.8970947265625 208 216 229
1370 550 1088.842041015625 204 214 226
1694 550 1293.8040771484375 177 189 211
1701 550 1298.6162109375 171 183 205
1702 550 1299.5787353515625 174 186 208
1709 550 1303.4296875 174 189 210
1733 550 1319.8060302734375 183 215 226
1734 550 1320.7698974609375 185 214 228
1735 550 1321.7337646484375 188 216 230
1741 550 1325.5897216796875 186 218 231
1748 550 1329.446533203125 193 219 232
1104 551 947.0881958007812 184 187 206
1116 551 953.5664672851562 185 188 207
1121 551 956.3451538085938 189 191 212
1125 551 958.1983032226562 194 199 219
1128 551 958.1983032226562 194 199 219
1129 551 959.1251220703125 197 202 222
1130 551 960.0520629882812 193 198 218
1141 551 965.6168823242188 199 206 224
1142 551 966.5448608398438 197 206 221
1145 551 967.4730224609375 205 210 229
1146 551 968.4012451171875 203 208 227
1150 551 970.2582397460938 203 212 229
1294 551 1044.87939453125 191 189 210
1295 551 1045.8193359375 198 199 217
1301 551 1049.5799560546875 194 200 214
1305 551 1050.5203857421875 191 197 211
1306 551 1051.4609375 195 201 217
1324 551 1061.81396484375 203 209 225
1325 551 1062.755859375 199 206 224
1326 551 1063.69775390625 201 206 225
1330 551 1065.58203125 211 217 233
1334 551 1066.5242919921875 204 213 228
1335 551 1067.4666748046875 206 215 230
1336 551 1068.4090576171875 208 214 230
1651 551 1264.2803955078125 169 173 198
1668 551 1275.8076171875 185 196 216
1669 551 1276.7685546875 177 190 207
1670 551 1277.7296142578125 170 183 200
1694 551 1294.0765380859375 188 205 223
1695 551 1295.03857421875 179 197 217
1701 551 1298.8875732421875 193 210 228
1702 551 1299.8499755859375 194 211 229
1708 551 1302.737548828125 197 219 233
1709 551 1303.7000732421875 196 215 232
1104 552 947.46875 189 196 214
1105 552 948.3933715820312 193 200 216
1116 552 953.9444580078125 199 208 223
1121 552 956.7219848632812 197 206 223
1124 552 957.6481323242188 200 209 224
1125 552 958.574462890625 203 212 227
1128 552 958.574462890625 199 208 225
1129 552 959.5009155273438 201 210 227
1130 552 960.427490234375 191 200 217
1264 552 1028.3287353515625 188 194 210
1265 552 1029.2662353515625 182 188 204
1277 552 1035.83203125 197 203 219
1278 552 1036.7705078125 199 202 219
1294 552 1045.2215576171875 198 204 220
1295 552 1046.1611328125 199 205 219
1301 552 1049.9205322265625 202 212 222
1305 552 1050.860595703125 199 209 219
1306 552 1051.80078125 206 216 228
1324 552 1062.150634765625 204 212 225
1631 552 1252.0850830078125 176 178 199
1632 552 1253.0443115234375 176 174 198
1637 552 1255.92236328125 181 186 208
1638 552 1256.8818359375 183 185 208
1644 552 1260.720458984375 177 182 204
1668 552 1276.0845947265625 191 210 225
1670 552 1278.0062255859375 193 212 226
1702 552 1300.1219482421875 192 214 225
1707 552 1302.0465087890625 200 224 236
888 553 857.9813232421875 193 200 216
1080 553 936.7710571289062 190 193 212
1081 553 937.6934204101562 186 189 208
1085 553 939.5386962890625 193 198 217
1086 553 940.4616088867188 185 188 207
1089 553 940.4616088867188 196 199 216
1090 553 941.3846435546875 194 197 214
1104 553 947.8502197265625 201 210 227
1105 553 948.7744750976562 203 212 227
1106 553 949.6989135742188 194 199 218
1116 553 954.3233032226562 199 208 223
1250 553 1022.120361328125 191 196 215
1251 553 1023.0567016601562 188 193 212
1255 553 1024.9298095703125 190 197 213
1259 553 1026.8033447265625 197 200 217
1260 553 1027.740234375 195 201 217
1264 553 1028.67724609375 201 207 223
1265 553 1029.614501953125 194 202 215
1277 553 1036.1781005859375 206 213 229
1278 553 1037.1162109375 206 212 226
1296 553 1047.443115234375 208 216 229
1612 553 1238.94873046875 185 186 207
1631 553 1252.3681640625 191 196 216
1632 553 1253.3271484375 188 190 213
1637 553 1256.20458984375 184 192 211
1638 553 1257.163818359375 184 191 210
1645 553 1261.961181640625 191 198 217
1650 553 1263.8804931640625 190 206 222
1651 553 1264.84033203125 190 206 222
1652 553 1265.8001708984375 189 200 220
1670 553 1278.2835693359375 193 217 227
1905 553 1439.6944580078125 147 167 194
1906 553 1440.6640625 155 177 201
1908 553 1442.603515625 152 174 198
1913 553 1445.5130615234375 167 183 209
1914 553 1446.4830322265625 150 170 194
1915 553 1447.452880859375 152 174 197
1916 553 1448.4229736328125 145 166 193
712 554 800.624755859375 89 87 88
713 554 801.51171875 97 96 92
716 554 804.1741333007812 131 132 134
860 554 847.575927734375 183 190 208
1056 554 926.1063842773438 172 173 194
1061 554 928.8670654296875 181 186 205
1065 554 929.78759765625 188 191 210
1066 554 930.7083129882812 185 188 207
1080 554 937.157958984375 197 206 221
1081 554 938.0799560546875 195 204 219
1084 554 939.0021362304688 195 207 221
1085 554 939.9244384765625 204 213 228
1089 554 940.8469848632812 204 214 226
1232 554 1013.1184692382812 189 195 211
1237 554 1014.9881591796875 190 196 212
1250 554 1022.4719848632812 194 203 218
1251 554 1023.4080200195312 196 208 222
1255 554 1025.2803955078125 195 207 219
1259 554 1027.1533203125 204 212 225
1260 554 1028.0899658203125 205 215 225
1264 554 1029.0267333984375 205 215 225
1265 554 1029.963623046875 203 213 223
1591 554 1225.8323974609375 189 187 209
1592 554 1226.789306640625 193 194 215
1601 554 1233.48974609375 185 187 210
1612 554 1239.235595703125 194 203 220
1613 554 1240.1934814453125 187 194 212
1614 554 1241.1514892578125 187 192 211
1631 554 1252.6519775390625 190 206 221
1632 554 1253.61083984375 196 212 225
1638 554 1257.4466552734375 192 208 223
1644 554 1261.283447265625 203 219 232
1651 554 1265.121337890625 198 218 229
1872 554 1417.65234375 162 178 204
1880 554 1422.495361328125 154 163 194
1905 554 1439.939208984375 144 168 194
1906 554 1440.90869140625 150 176 199
1908 554 1442.847900390625 157 183 206
1909 554 1443.8175048828125 158 184 209
1913 554 1445.7568359375 165 187 211
1914 554 1446.7266845703125 167 192 214
1915 554 1447.6964111328125 160 187 208
1916 554 1448.666259765625 146 174 198
712 555 801.08740234375 86 84 85
713 555 801.9738159179688 103 102 98
714 555 802.8605346679688 127 124 119
715 555 803.7474975585938 144 143 139
1046 555 921.9028930664062 189 192 211
1047 555 922.82177734375 184 187 206
1055 555 925.5792846679688 184 187 206
1056 555 926.498779296875 186 189 208
1065 555 930.178466796875 205 208 227
1066 555 931.0988159179688 198 203 222
1215 555 1004.136474609375 181 184 203
1220 555 1006.0029907226562 186 192 208
1221 555 1006.9364624023438 177 183 199
1236 555 1014.40869140625 196 203 219
1237 555 1015.34326171875 202 209 225
1249 555 1021.888916015625 201 207 223
1250 555 1022.8245239257812 198 207 222
1251 555 1023.76025390625 197 209 223
1259 555 1027.5042724609375 202 210 223
1553 555 1202.2283935546875 187 184 205
1576 555 1216.5599365234375 197 198 219
1577 555 1217.515869140625 189 190 211
1594 555 1228.9935302734375 196 205 222
1606 555 1236.6507568359375 204 211 230
1607 555 1237.608154296875 202 209 227
1612 555 1239.5233154296875 203 216 232
1613 555 1240.48095703125 202 214 230
1614 555 1241.438720703125 206 215 232
1632 555 1253.8951416015625 195 213 225
1638 555 1257.7301025390625 199 215 230
1860 555 1408.220458984375 160 169 202
1861 555 1409.1884765625 156 162 196
1862 555 1410.1563720703125 161 170 201
1869 555 1414.996826171875 166 180 207
1870 555 1415.965087890625 171 185 212
1871 555 1416.933349609375 169 183 210
1872 555 1417.901611328125 156 172 198
1877 555 1419.83837890625 156 173 199
1878 555 1420.8067626953125 159 177 201
1879 555 1421.7752685546875 170 186 211
1880 555 1422.7437744140625 158 174 200
1907 555 1442.1234130859375 176 204 225
1908 555 1443.0928955078125 174 205 225
1909 555 1444.0623779296875 166 197 217
1914 555 1446.970947265625 163 194 214
1915 555 1447.9405517578125 170 201 221
1916 555 1448.9102783203125 162 194 215
711 556 800.6653442382812 73 74 76
712 556 801.551025390625 100 98 99
713 556 802.4368896484375 105 104 100
833 556 839.450439453125 180 187 206
1023 556 912.2066650390625 182 187 207
1024 556 913.1232299804688 175 180 199
1028 556 914.9568481445312 181 184 203
1031 556 914.9568481445312 191 198 216
1032 556 915.8739013671875 189 198 215
1046 556 922.2982177734375 199 206 222
1047 556 923.2166748046875 194 201 217
1189 556 991.449951171875 178 183 203
1192 556 991.449951171875 190 193 212
1210 556 1001.6985473632812 197 206 221
1220 556 1006.3622436523438 197 209 221
1221 556 1007.29541015625 191 203 215
1236 556 1014.7650146484375 203 213 225
1541 556 1194.8907470703125 189 184 207
1546 556 1197.7532958984375 191 192 213
1552 556 1201.571044921875 189 190 211
1553 556 1202.525634765625 188 189 210
1559 556 1205.3900146484375 183 192 209
1576 556 1216.853759765625 199 211 227
1577 556 1217.8094482421875 198 210 224
1835 556 1391.060791015625 160 182 205
1836 556 1392.0277099609375 163 183 208
1837 556 1392.99462890625 159 179 204
1843 556 1396.8629150390625 159 179 204
1844 556 1397.830078125 154 174 201
1845 556 1398.79736328125 165 182 210
1852 556 1403.6341552734375 162 179 207
1860 556 1408.47216796875 162 176 205
1861 556 1409.43994140625 162 176 205
1863 556 1411.3756103515625 165 182 208
1869 556 1415.247314453125 173 194 215
1870 556 1416.21533203125 175 197 218
1872 556 1418.151611328125 166 191 211
1873 556 1419.1197509765625 173 198 220
1877 556 1420.0880126953125 169 196 215
1879 556 1422.024658203125 167 194 211
1880 556 1422.992919921875 173 200 217
1881 556 1423.96142578125 166 193 210
1906 556 1441.4000244140625 176 209 224
1908 556 1443.3385009765625 176 212 226
1909 556 1444.3077392578125 168 204 218
1916 556 1449.1549072265625 159 195 211
711 557 801.1304321289062 71 72 74
1000 557 902.5413818359375 178 180 201
1009 557 906.19921875 180 185 205
1023 557 912.6072387695312 200 205 224
1024 557 913.5233764648438 196 201 220
1027 557 914.439697265625 202 209 227
1028 557 915.356201171875 201 206 225
1031 557 915.356201171875 206 213 231
1032 557 916.2728881835938 199 208 225
1183 557 988.0941162109375 194 197 216
1184 557 989.0242919921875 192 197 216
1188 557 990.8849487304688 190 195 214
1189 557 991.8154907226562 186 191 210
1192 557 991.8154907226562 192 198 214
1193 557 992.7462158203125 196 202 218
1210 557 1002.0603637695312 206 215 230
1211 557 1002.9924926757812 201 210 225
1215 557 1004.857177734375 200 212 224
1220 557 1006.722412109375 202 212 224
1517 557 1179.939453125 184 176 200
1523 557 1182.7974853515625 184 181 202
1524 557 1183.7503662109375 186 182 205
1539 557 1193.2833251953125 196 197 218
1540 557 1194.2369384765625 195 196 217
1541 557 1195.1907958984375 193 191 213
1547 557 1199.0067138671875 194 199 218
1552 557 1201.869384765625 199 204 223
1553 557 1202.82373046875 199 204 223
1558 557 1204.7327880859375 197 211 224
1577 557 1218.1038818359375 205 219 232
1796 557 1365.2325439453125 162 176 203
1802 557 1369.0946044921875 173 187 213
1807 557 1371.9915771484375 169 178 207
1808 557 1372.9573974609375 167 178 206
1809 557 1373.9232177734375 167 178 206
1810 557 1374.8890380859375 163 174 204
1814 557 1375.85498046875 173 184 212
1815 557 1376.8209228515625 180 194 221
1816 557 1377.7869873046875 176 188 214
1817 557 1378.7530517578125 163 174 202
1836 557 1392.282958984375 164 189 211
1837 557 1393.249755859375 168 190 213
1843 557 1397.117431640625 178 200 223
1845 557 1399.051513671875 158 180 204
1871 557 1417.434326171875 187 216 230
1877 557 1420.33837890625 173 205 220
1878 557 1421.306396484375 181 213 226
1879 557 1422.2745361328125 183 215 228
1880 557 1423.2427978515625 186 218 229
1881 557 1424.2110595703125 179 211 224
987 558 897.4686889648438 177 184 202
1009 558 906.6035766601562 200 212 228
1010 558 907.51806640625 194 203 220
1023 558 913.0087890625 198 205 223
1155 558 973.6041259765625 174 179 198
1156 558 974.5316772460938 178 176 198
1167 558 980.0999755859375 192 199 217
1168 558 981.028564453125 184 191 209
1183 558 988.4619140625 203 210 228
1184 558 989.3917236328125 205 214 229
1188 558 991.251708984375 205 214 229
1189 558 992.1819458007812 201 210 225
1192 558 992.1819458007812 207 216 231
1193 558 993.1123046875 202 214 226
1488 558 1161.213134765625 191 186 208
1495 558 1165.9678955078125 191 189 210
1503 558 1170.724609375 185 182 203
1517 558 1180.2440185546875 200 201 221
1523 558 1183.1014404296875 191 197 213
1524 558 1184.0540771484375 188 193 212
1540 558 1194.5379638671875 203 215 227
1541 558 1195.4915771484375 204 216 228
1547 558 1199.3065185546875 204 218 229
1558 558 1205.0311279296875 206 223 233
1559 558 1205.9854736328125 205 222 232
1773 558 1348.1279296875 168 184 209
1793 558 1362.5982666015625 174 184 209
1794 558 1363.5633544921875 169 181 207
1795 558 1364.5284423828125 173 187 213
1796 558 1365.49365234375 169 183 210
1800 558 1367.4241943359375 173 187 213
1801 558 1368.3895263671875 173 191 213
1802 558 1369.35498046875 172 190 212
1807 558 1372.25146484375 173 187 213
1808 558 1373.217041015625 170 188 212
1809 558 1374.1826171875 171 189 213
1814 558 1376.1141357421875 172 192 216
1815 558 1377.079833984375 178 199 220
1816 558 1378.0457763671875 177 195 217
1817 558 1379.0115966796875 176 194 216
1838 558 1394.4722900390625 179 208 226
1844 558 1398.33935546875 180 207 224
1845 558 1399.3062744140625 184 213 231
1880 558 1423.4932861328125 171 203 214
965 559 888.7659912109375 177 182 202
966 559 889.6763305664062 174 179 198
973 559 892.4085083007812 185 190 209
977 559 893.3196411132812 191 194 213
987 559 897.8780517578125 199 206 224
995 559 901.5281372070312 192 204 220
1141 559 967.4921264648438 190 191 211
1142 559 968.4182739257812 184 189 209
1146 559 970.2711181640625 196 199 218
1150 559 972.1244506835938 191 193 214
1155 559 973.9784545898438 190 195 214
1166 559 979.5437622070312 205 212 230
1466 559 1147.27587890625 190 182 205
1467 559 1148.22509765625 190 182 205
1468 559 1149.1744384765625 185 172 198
1489 559 1162.47412109375 198 196 217
1503 559 1171.032470703125 194 195 215
1517 559 1180.5494384765625 207 213 229
1523 559 1183.4061279296875 207 216 231
1741 559 1327.195556640625 167 179 203
1773 559 1348.39306640625 173 189 214
1774 559 1349.3572998046875 174 190 215
1775 559 1350.3214111328125 173 189 214
1776 559 1351.28564453125 163 177 204
1793 559 1362.860595703125 176 191 214
1794 559 1363.8255615234375 182 198 221
1795 559 1364.7904052734375 179 197 219
1796 559 1365.7554931640625 178 196 220
1800 559 1367.6856689453125 171 193 214
1801 559 1368.6507568359375 177 203 220
1802 559 1369.615966796875 180 203 221
1808 559 1373.477294921875 181 204 222
1809 559 1374.4427490234375 185 208 226
1810 559 1375.4083251953125 185 207 228
1814 559 1376.3739013671875 185 211 228
1815 559 1377.3394775390625 189 215 230
1816 559 1378.30517578125 192 215 233
1817 559 1379.2708740234375 191 214 232
1837 559 1393.76220703125 185 216 234
1838 559 1394.7286376953125 184 213 231
1844 559 1398.594970703125 183 210 227
1859 559 1408.26416015625 178 200 214
955 560 884.6338500976562 183 192 209
966 560 890.0904541015625 189 198 215
969 560 891.0005493164062 190 199 216
973 560 892.8213500976562 195 202 218
1116 560 955.8477783203125 181 184 203
1121 560 958.6198120117188 186 191 210
1125 560 960.4686279296875 183 190 206
1129 560 961.3932495117188 195 198 217
1130 560 962.3180541992188 187 190 209
1141 560 967.8698120117188 200 207 223
1142 560 968.795654296875 196 205 222
1146 560 970.647705078125 200 209 224
1147 560 971.573974609375 196 203 219
1150 560 972.5003662109375 204 211 229
1151 560 973.4269409179688 197 206 223
1167 560 980.8445434570312 193 201 220
1434 560 1128.6297607421875 190 187 208
1455 560 1141.8988037109375 193 190 211
1456 560 1142.8472900390625 191 188 209
1460 560 1144.7445068359375 192 193 213
1461 560 1145.6932373046875 189 190 210
1462 560 1146.64208984375 186 184 205
1466 560 1147.5909423828125 194 192 213
1467 560 1148.5399169921875 187 188 208
1502 560 1170.39013671875 203 213 225
1503 560 1171.341064453125 202 212 224
1732 560 1320.727783203125 173 184 206
1733 560 1321.690185546875 174 186 208
1734 560 1322.652587890625 174 186 208
1739 560 1325.540283203125 170 180 207
1740 560 1326.5029296875 169 181 207
1741 560 1327.465576171875 167 179 205
1742 560 1328.4283447265625 165 175 202
1749 560 1332.280029296875 167 182 205
1750 560 1333.2430419921875 160 170 197
1773 560 1348.658935546875 180 202 223
1774 560 1349.6229248046875 178 204 221
1775 560 1350.5869140625 176 202 219
1776 560 1351.5509033203125 178 199 220
1793 560 1363.1236572265625 186 209 225
1794 560 1364.08837890625 189 215 230
1795 560 1365.0531005859375 189 217 229
1796 560 1366.0179443359375 186 214 228
1801 560 1368.9127197265625 182 214 227
1802 560 1369.877685546875 188 218 229
1803 560 1370.8427734375 185 213 227
1808 560 1373.73828125 187 215 229
1809 560 1374.70361328125 187 213 228
1810 560 1375.6689453125 187 208 227
1815 560 1377.5997314453125 185 213 225
1816 560 1378.565185546875 186 212 227
1817 560 1379.53076171875 190 216 231
934 561 876.8836669921875 181 188 206
955 561 885.0513916015625 195 204 221
956 561 885.9599609375 192 204 220
1105 561 950.6934204101562 185 190 209
1116 561 956.2311401367188 192 195 214
1120 561 958.0783081054688 195 200 219
1121 561 959.0020751953125 199 204 223
1125 561 960.8501586914062 202 211 226
1126 561 961.7744140625 195 200 219
1130 561 962.6987915039062 204 209 228
1141 561 968.2484130859375 208 215 233
1142 561 969.1738891601562 206 215 232
1146 561 971.0252075195312 198 205 221
1418 561 1118.54052734375 189 186 205
1419 561 1119.4864501953125 190 187 206
1433 561 1128.0040283203125 190 188 209
1434 561 1128.9508056640625 194 192 213
1454 561 1141.2681884765625 199 200 220
1455 561 1142.21630859375 199 202 219
1461 561 1146.0096435546875 194 199 218
1468 561 1149.8043212890625 206 207 227
1701 561 1300.8074951171875 175 186 208
1702 561 1301.7684326171875 172 183 205
1707 561 1303.6905517578125 177 189 211
1708 561 1304.6517333984375 178 189 211
1709 561 1305.6129150390625 176 187 209
1710 561 1306.5740966796875 176 183 211
1733 561 1321.962158203125 171 186 205
1734 561 1322.9244384765625 171 188 206
1735 561 1323.88671875 171 188 208
1740 561 1326.77392578125 176 192 215
1741 561 1327.7364501953125 183 199 222
1742 561 1328.698974609375 184 199 222
1747 561 1330.624267578125 184 203 220
1748 561 1331.5870361328125 186 207 224
1749 561 1332.5498046875 179 198 215
1750 561 1333.5126953125 184 201 221
1751 561 1334.4755859375 182 198 221
1774 561 1349.8892822265625 190 218 232
1775 561 1350.85302734375 191 217 232
1776 561 1351.81689453125 193 216 234
1794 561 1364.351806640625 188 216 228
1795 561 1365.31640625 186 214 226
1796 561 1366.2811279296875 183 212 226
713 562 803.8320922851562 102 97 94
716 562 806.48681640625 141 139 140
913 562 869.1588134765625 174 179 198
914 562 870.063232421875 174 181 199
918 562 871.8726806640625 183 192 207
921 562 871.8726806640625 189 196 212
935 562 878.21240234375 189 198 213
1080 562 939.10595703125 180 183 202
1081 562 940.0260620117188 182 185 204
1085 562 941.8667602539062 189 194 213
1089 562 942.787353515625 190 196 212
1090 562 943.7081298828125 182 187 206
1105 562 951.0798950195312 197 206 221
1116 562 956.6154174804688 199 208 225
1121 562 959.3851928710938 199 206 222
1124 562 960.3087768554688 199 206 222
1125 562 961.2325439453125 199 208 223
1386 562 1099.9727783203125 182 180 201
1400 562 1108.4697265625 192 193 213
1401 562 1109.414306640625 195 196 216
1402 562 1110.3590087890625 192 193 214
1407 562 1113.193603515625 189 192 211
1408 562 1114.138671875 185 186 206
1413 562 1116.9744873046875 193 198 217
1418 562 1118.865478515625 192 195 214
1419 562 1119.8111572265625 188 191 210
1433 562 1128.326171875 206 215 230
1434 562 1129.2728271484375 200 210 222
1456 562 1143.482421875 198 206 219
1460 562 1145.3785400390625 208 218 228
1692 562 1294.36083984375 174 180 206
1693 562 1295.3211669921875 176 187 209
1694 562 1296.2816162109375 180 195 216
1695 562 1297.2420654296875 185 200 221
1696 562 1298.20263671875 174 185 207
1700 562 1300.123779296875 176 187 209
1701 562 1301.0845947265625 173 186 205
1702 562 1302.0452880859375 175 186 206
1703 562 1303.006103515625 181 192 214
1708 562 1304.927978515625 182 201 216
1709 562 1305.888916015625 178 195 211
1710 562 1306.8499755859375 179 194 215
1733 562 1322.23486328125 186 209 223
1734 562 1323.1968994140625 188 215 226
1735 562 1324.158935546875 188 215 226
1741 562 1328.0079345703125 193 219 232
1742 562 1328.9703369140625 191 214 228
1749 562 1332.8203125 183 211 222
1750 562 1333.782958984375 189 212 226
713 563 804.299072265625 107 104 99
913 563 869.5861206054688 186 191 210
914 563 870.4901123046875 192 199 217
1047 563 924.8053588867188 178 181 200
1056 563 928.4745483398438 174 175 195
1057 563 929.3922729492188 181 184 203
1065 563 932.1464233398438 186 187 208
1066 563 933.0648193359375 179 184 203
1081 563 940.41796875 198 203 222
1085 563 942.2579345703125 199 206 224
1086 563 943.1781616210938 205 210 229
1090 563 944.0985107421875 198 205 223
1105 563 951.46728515625 193 202 217
1356 563 1083.3397216796875 178 176 197
1369 563 1090.8753662109375 190 187 208
1371 563 1092.76025390625 192 190 211
1375 563 1094.6456298828125 196 195 213
1376 563 1095.58837890625 192 191 209
1380 563 1097.474365234375 198 196 217
1381 563 1098.41748046875 191 192 212
1386 563 1100.3040771484375 192 193 213
1387 563 1101.2474365234375 190 191 211
1401 563 1109.7427978515625 192 197 216
1402 563 1110.6871337890625 200 205 224
1408 563 1114.4658203125 199 205 221
1413 563 1117.30078125 197 206 221
1419 563 1120.1365966796875 197 204 220
1420 563 1121.08203125 198 205 221
1644 563 1262.9901123046875 179 185 207
1650 563 1265.864501953125 184 190 214
1652 563 1267.7811279296875 181 183 206
1668 563 1278.3270263671875 182 193 211
1669 563 1279.2861328125 179 190 208
1670 563 1280.2452392578125 183 189 211
1695 563 1297.520751953125 183 202 219
1696 563 1298.4810791015625 186 199 218
1701 563 1301.3623046875 185 202 218
1702 563 1302.3228759765625 199 215 231
1703 563 1303.2835693359375 194 207 224
1707 563 1304.2442626953125 191 217 230
1708 563 1305.2049560546875 192 216 228
1710 563 1307.1265869140625 190 209 226
1735 563 1324.4320068359375 193 217 229
1749 563 1333.091552734375 166 194 205
712 564 803.8837280273438 93 91 92
713 564 804.7670288085938 111 107 104
1032 564 917.8779907226562 170 171 191
1047 564 925.204833984375 177 182 201
1065 564 932.5427856445312 198 205 221
1066 564 933.4607543945312 197 206 221
1081 564 940.810791015625 198 207 222
1082 564 941.7303466796875 195 204 219
1337 564 1072.389892578125 183 186 205
1355 564 1082.73583984375 192 193 211
1356 564 1083.6771240234375 190 193 212
1369 564 1091.2103271484375 194 200 216
1370 564 1092.1524658203125 196 202 218
1375 564 1094.9794921875 199 206 222
1376 564 1095.9219970703125 200 209 224
1380 564 1097.807373046875 196 205 220
1381 564 1098.750244140625 199 211 225
1382 564 1099.693115234375 197 206 221
1386 564 1100.63623046875 202 214 228
1401 564 1110.072021484375 209 221 233
1402 564 1111.0162353515625 205 217 229
1631 564 1254.6593017578125 184 184 208
1632 564 1255.6165771484375 171 171 195
1633 564 1256.5738525390625 184 182 206
1638 564 1259.4462890625 173 177 202
1639 564 1260.4039306640625 172 176 201
1644 564 1263.277099609375 178 189 209
1645 564 1264.2349853515625 172 180 203
1650 564 1266.15087890625 180 191 211
1651 564 1267.10888671875 183 194 214
1669 564 1279.5694580078125 190 206 221
1670 564 1280.5284423828125 194 207 223
1694 564 1296.8399658203125 198 222 234
1695 564 1297.800048828125 195 219 231
1696 564 1298.7601318359375 193 212 227
1700 564 1300.6805419921875 199 218 233
1701 564 1301.640869140625 195 217 230
1702 564 1302.6011962890625 198 220 231
1708 564 1305.482666015625 188 214 227
1709 564 1306.4432373046875 191 214 228
1710 564 1307.4039306640625 184 203 220
872 565 855.1239624023438 183 190 209
1024 565 915.5380859375 182 187 207
1028 565 917.3668823242188 182 187 207
1031 565 917.3668823242188 189 191 212
1032 565 918.2815551757812 191 193 214
1046 565 924.6891479492188 200 206 222
1047 565 925.605224609375 195 201 217
1055 565 928.3544311523438 198 205 223
1056 565 929.271240234375 185 190 210
1307 565 1055.835693359375 174 177 194
1325 565 1066.1566162109375 195 196 216
1326 565 1067.0955810546875 193 194 214
1331 565 1069.9130859375 187 193 209
1336 565 1071.7919921875 198 201 218
1355 565 1083.0743408203125 201 204 221
1356 565 1084.0152587890625 200 206 222
1371 565 1093.429931640625 205 212 228
1376 565 1096.25634765625 203 215 227
1595 565 1232.0003662109375 190 188 210
1601 565 1235.8223876953125 182 179 206
1606 565 1238.6895751953125 181 186 206
1607 565 1239.6455078125 178 183 205
1613 565 1242.5135498046875 181 188 207
1614 565 1243.4697265625 174 181 200
1630 565 1253.9920654296875 191 196 216
1631 565 1254.948974609375 193 198 218
1632 565 1255.906005859375 195 200 222
1638 565 1259.73486328125 187 195 216
1639 565 1260.6922607421875 189 197 218
1644 565 1263.5648193359375 189 205 221
1645 565 1264.5224609375 197 210 227
1668 565 1278.894775390625 205 221 236
1669 565 1279.853515625 206 222 237
1670 565 1280.812255859375 196 212 227
833 566 842.1051025390625 167 175 194
1000 566 904.9911499023438 176 183 201
1009 566 908.6390991210938 191 200 215
1010 566 909.551513671875 179 186 204
1023 566 915.030029296875 199 208 225
1024 566 915.9437866210938 200 212 228
1028 566 917.771728515625 200 207 225
1031 566 917.771728515625 203 210 228
1032 566 918.68603515625 198 207 224
1046 566 925.0908203125 191 197 213
1296 566 1050.561767578125 191 197 213
1301 566 1053.3721923828125 192 201 216
1302 566 1054.3092041015625 192 201 218
1306 566 1055.2464599609375 193 202 217
1307 566 1056.1837158203125 187 196 211
1325 566 1066.5013427734375 199 206 222
1326 566 1067.43994140625 196 203 219
1331 566 1070.2564697265625 199 211 223
1335 566 1071.195556640625 201 213 225
1336 566 1072.134765625 203 213 225
1337 566 1073.0740966796875 201 211 223
1575 566 1217.9774169921875 184 185 206
1576 566 1218.9315185546875 184 189 211
1577 566 1219.8856201171875 183 188 208
1592 566 1229.43115234375 184 186 207
1593 566 1230.3861083984375 190 195 214
1594 566 1231.3411865234375 196 203 219
1595 566 1232.2962646484375 187 194 210
1601 566 1236.1173095703125 184 190 212
1607 566 1239.9395751953125 192 204 220
1613 566 1242.806884765625 189 203 216
1614 566 1243.7628173828125 192 206 219
1630 566 1254.28271484375 202 215 231
1631 566 1255.2393798828125 200 216 231
1632 566 1256.1962890625 199 215 230
1633 566 1257.153076171875 198 214 229
1638 566 1260.024169921875 194 212 226
1639 566 1260.9813232421875 201 217 232
1644 566 1263.853271484375 203 223 232
1651 566 1267.683349609375 201 221 232
1652 566 1268.6409912109375 199 217 227
833 567 842.5509033203125 174 182 201
977 567 895.3909912109375 168 173 192
987 567 899.9389038085938 183 188 207
988 567 900.8490600585938 181 188 207
1000 567 905.4026489257812 190 197 215
1009 567 909.0489501953125 197 206 221
1010 567 909.9609985351562 194 203 220
1265 567 1033.143798828125 184 187 206
1278 567 1040.6199951171875 197 200 219
1279 567 1041.5550537109375 189 192 211
1296 567 1050.9124755859375 199 206 222
1301 567 1053.721923828125 197 209 223
1302 567 1054.65869140625 197 209 223
1306 567 1055.5955810546875 201 213 227
1307 567 1056.5325927734375 192 204 218
1325 567 1066.8468017578125 203 213 225
1546 567 1200.168701171875 189 187 209
1547 567 1201.12109375 187 188 209
1548 567 1202.0736083984375 189 187 209
1553 567 1204.9315185546875 187 182 205
1558 567 1206.837158203125 191 192 213
1559 567 1207.7901611328125 189 190 211
1560 567 1208.7431640625 183 181 203
1576 567 1219.2313232421875 192 197 217
1577 567 1220.1851806640625 187 194 213
1593 567 1230.68310546875 200 209 226
1594 567 1231.637939453125 203 215 229
1595 567 1232.5927734375 195 207 221
1596 567 1233.5477294921875 197 209 225
1601 567 1236.4129638671875 198 211 228
1606 567 1239.27880859375 200 214 227
1607 567 1240.2342529296875 202 216 229
1612 567 1242.145263671875 205 219 232
1613 567 1243.1009521484375 199 217 227
1614 567 1244.056640625 195 212 222
1631 567 1255.530517578125 198 214 229
1632 567 1256.4871826171875 190 208 222
956 568 887.6378784179688 172 177 197
965 568 891.26708984375 190 192 213
966 568 892.1748657226562 185 190 209
970 568 893.9910278320312 175 182 201
973 568 894.8994140625 190 199 216
977 568 895.8080444335938 190 199 214
987 568 900.3538208007812 198 207 222
988 568 901.2635498046875 192 204 220
1250 568 1026.0355224609375 183 186 203
1251 568 1026.9683837890625 186 192 208
1255 568 1028.8343505859375 192 199 215
1256 568 1029.7674560546875 189 196 212
1260 568 1031.6341552734375 193 200 216
1261 568 1032.567626953125 193 200 216
1265 568 1033.5013427734375 192 204 220
1278 568 1040.9749755859375 200 209 224
1517 568 1182.39794921875 178 174 197
1522 568 1184.29931640625 188 184 207
1524 568 1186.2010498046875 185 181 204
1540 568 1196.666259765625 190 191 211
1541 568 1197.6180419921875 188 191 210
1542 568 1198.5699462890625 192 195 214
1547 568 1201.42626953125 190 199 216
1548 568 1202.37841796875 187 194 212
1553 568 1205.2357177734375 192 195 214
1554 568 1206.188232421875 188 190 211
1559 568 1208.093505859375 190 199 216
1560 568 1209.0462646484375 190 195 214
1577 568 1220.485595703125 199 213 226
1595 568 1232.89013671875 201 218 228
1614 568 1244.3511962890625 190 204 215
935 569 879.90966796875 172 179 197
943 569 882.62451171875 172 179 197
955 569 887.1533203125 194 199 218
956 569 888.0596923828125 189 194 214
966 569 892.5945434570312 203 208 227
977 569 896.2259521484375 199 208 223
1220 569 1009.6345825195312 187 185 206
1221 569 1010.564697265625 184 182 203
1237 569 1018.9415893554688 196 197 215
1238 569 1019.873046875 194 197 214
1250 569 1026.3966064453125 199 205 221
1251 569 1027.3291015625 202 209 225
1255 569 1029.1943359375 204 216 230
1256 569 1030.127197265625 195 207 221
1260 569 1031.9931640625 203 212 227
1261 569 1032.9263916015625 204 213 228
1265 569 1033.8597412109375 195 208 224
1489 569 1164.6668701171875 193 188 210
1495 569 1168.462646484375 187 182 204
1496 569 1169.411865234375 188 183 205
1503 569 1173.209228515625 181 176 198
1504 569 1174.1588134765625 179 175 198
1512 569 1179.8580322265625 189 187 209
1517 569 1182.708740234375 188 189 210
1518 569 1183.6591796875 188 189 210
1523 569 1185.5601806640625 197 198 219
1524 569 1186.5108642578125 191 192 213
1525 569 1187.4615478515625 194 195 216
1540 569 1196.9732666015625 197 202 221
1541 569 1197.9249267578125 199 206 222
1542 569 1198.8765869140625 198 205 221
1547 569 1201.7320556640625 201 215 228
1548 569 1202.68408203125 196 208 222
1553 569 1205.54052734375 205 212 228
1554 569 1206.4927978515625 203 210 228
1559 569 1208.397705078125 210 222 238
1560 569 1209.3502197265625 204 211 229
914 570 872.2069702148438 167 172 191
922 570 874.9148559570312 171 178 196
935 570 880.3363037109375 190 199 216
943 570 883.0498046875 181 193 209
955 570 887.5764770507812 197 204 220
956 570 888.482421875 197 202 221
1210 570 1005.3556518554688 188 191 210
1211 570 1006.2847290039062 191 194 213
1220 570 1010.0025024414062 197 203 219
1221 570 1010.9322509765625 188 191 208
1222 570 1011.8621215820312 187 190 209
1232 570 1017.4443359375 203 210 226
1238 570 1020.2372436523438 197 205 218
1250 570 1026.758544921875 196 206 218
1461 570 1147.9241943359375 189 186 207
1462 570 1148.8712158203125 183 180 201
1467 570 1150.765380859375 185 182 203
1468 570 1151.712646484375 185 181 204
1489 570 1164.9832763671875 191 192 212
1495 570 1168.7779541015625 188 191 208
1496 570 1169.7269287109375 191 194 211
1503 570 1173.5233154296875 189 192 209
1517 570 1183.020263671875 193 205 219
1523 570 1185.8709716796875 205 217 231
1524 570 1186.8214111328125 202 212 224
1525 570 1187.7718505859375 197 207 219
1541 570 1198.232421875 204 216 228
1542 570 1199.183837890625 204 214 226
1547 570 1202.0386962890625 200 214 225
1548 570 1202.990478515625 201 213 225
712 571 806.2406616210938 86 86 88
901 571 867.231201171875 174 179 198
913 571 871.7367553710938 184 189 208
914 571 872.6385498046875 189 194 213
918 571 874.4426879882812 188 193 212
935 571 880.7638549804688 197 206 223
1184 571 992.7381591796875 183 184 205
1185 571 993.6649169921875 181 182 203
1189 571 995.5189819335938 191 193 214
1193 571 996.4461669921875 192 195 214
1211 571 1006.6548461914062 201 208 226
1216 571 1009.44189453125 201 206 225
1434 571 1131.2210693359375 188 185 206
1455 571 1144.4600830078125 190 188 209
1456 571 1145.406494140625 195 193 215
1457 571 1146.3529052734375 194 190 213
1461 571 1148.24609375 189 190 210
1462 571 1149.1927490234375 197 195 216
1467 571 1151.08642578125 195 196 216
1468 571 1152.033447265625 190 188 210
1489 571 1165.3004150390625 202 209 225
1490 571 1166.2486572265625 200 207 223
1496 571 1170.042724609375 203 209 225
1502 571 1172.88916015625 205 212 228
1503 571 1173.838134765625 203 209 225
1518 571 1184.282470703125 203 217 228
1523 571 1186.1824951171875 203 215 229
1524 571 1187.1326904296875 201 209 222
1155 572 977.3868408203125 177 179 200
1156 572 978.310791015625 175 176 197
1167 572 983.8577270507812 187 192 211
1168 572 984.78271484375 185 190 209
1183 572 992.18798828125 191 196 215
1184 572 993.1143188476562 197 206 223
1188 572 994.9673461914062 200 207 225
1189 572 995.89404296875 199 208 225
1193 572 996.8209228515625 206 215 230
1402 572 1112.67333984375 196 194 215
1407 572 1115.5020751953125 192 189 210
1408 572 1116.4453125 185 183 205
1413 572 1119.2752685546875 186 187 208
1418 572 1121.162353515625 191 189 211
1419 572 1122.1060791015625 191 189 210
1420 572 1123.0498046875 191 189 210
1433 572 1130.6038818359375 193 196 215
1434 572 1131.5484619140625 196 202 218
1435 572 1132.4932861328125 186 189 206
1455 572 1144.7838134765625 200 209 224
1456 572 1145.7298583984375 195 204 219
1457 572 1146.676025390625 193 200 216
1461 572 1148.5687255859375 200 212 224
1462 572 1149.51513671875 200 210 222
1468 572 1152.35498046875 199 209 221
1488 572 1164.6702880859375 208 221 230
1489 572 1165.6182861328125 201 211 221
1490 572 1166.5662841796875 195 201 215
1495 572 1169.4110107421875 200 206 220
1916 572 1452.1412353515625 151 171 196
712 573 806.2406616210938 81 79 82
713 573 807.1213989257812 106 100 100
716 573 809.765380859375 133 132 130
861 573 853.7365112304688 171 179 198
872 573 857.3225708007812 182 190 209
892 573 864.505615234375 190 196 212
1142 573 972.2314453125 179 180 201
1143 573 973.1541748046875 175 177 198
1146 573 974.0770263671875 189 191 212
1147 573 975.0 187 189 210
1150 573 975.9231567382812 200 201 222
1151 573 976.846435546875 191 192 213
1156 573 978.6935424804688 187 188 209
1167 573 984.23828125 198 203 222
1168 573 985.1629028320312 202 209 227
1184 573 993.4913330078125 200 209 226
1189 573 996.27001953125 205 212 230
1376 573 1097.9403076171875 189 188 206
1381 573 1100.763427734375 189 186 207
1382 573 1101.70458984375 186 183 204
1386 573 1102.6458740234375 194 191 212
1387 573 1103.5872802734375 189 186 207
1402 573 1113.0072021484375 198 199 219
1403 573 1113.94970703125 192 193 213
1407 573 1115.8350830078125 196 194 215
1408 573 1116.7779541015625 196 197 218
1414 573 1120.55029296875 190 192 213
1419 573 1122.4371337890625 199 202 221
1420 573 1123.380615234375 192 195 214
1433 573 1130.932373046875 203 210 226
1434 573 1131.876708984375 201 210 225
1435 573 1132.8212890625 202 209 225
1456 573 1146.0540771484375 201 211 223
1462 573 1149.8382568359375 205 215 225
1468 573 1152.6773681640625 190 200 212
712 574 806.7149658203125 85 83 86
713 574 807.59521484375 103 97 99
714 574 808.4757080078125 123 118 115
1116 574 959.7213134765625 179 180 201
1117 574 960.6414794921875 181 182 203
1121 574 962.482177734375 190 193 212
1125 574 964.3236083984375 191 193 214
1126 574 965.2445068359375 185 187 208
1129 574 965.2445068359375 191 196 218
1130 574 966.1655883789062 184 189 209
1141 574 971.6954345703125 192 197 216
1142 574 972.6176147460938 196 203 221
1143 574 973.5399169921875 183 192 209
1146 574 974.46240234375 198 207 224
1150 574 976.307861328125 197 204 222
1151 574 977.2307739257812 201 208 226
1355 574 1085.1220703125 193 194 214
1356 574 1086.061279296875 191 194 213
1369 574 1093.578125 193 191 213
1370 574 1094.5181884765625 191 192 213
1371 574 1095.4583740234375 193 196 215
1376 574 1098.279541015625 195 198 217
1377 574 1099.22021484375 191 192 212
1381 574 1101.1016845703125 198 201 220
1382 574 1102.0426025390625 192 197 216
1386 574 1102.983642578125 197 203 219
1387 574 1103.9248046875 195 201 217
1388 574 1104.8660888671875 192 197 216
1402 574 1113.341796875 199 211 223
1403 574 1114.2840576171875 199 209 221
1407 574 1116.1689453125 205 215 227
1408 574 1117.1114501953125 206 213 229
1413 574 1119.939697265625 208 217 232
1414 574 1120.8826904296875 199 209 221
1419 574 1122.7689208984375 207 217 227
1420 574 1123.712158203125 197 207 219
1435 574 1133.1500244140625 198 206 219
814 575 838.5523071289062 161 168 186
833 575 844.7940673828125 174 180 202
1090 575 947.25390625 177 182 201
1105 575 954.5983276367188 189 191 212
1106 575 955.5171508789062 184 186 207
1117 575 961.0333251953125 197 200 219
1121 575 962.873291015625 199 204 223
1122 575 963.7935180664062 197 203 219
1125 575 964.7139282226562 205 210 230
1126 575 965.634521484375 204 209 229
1129 575 965.634521484375 203 208 228
1130 575 966.5552368164062 204 211 229
1142 575 973.004638671875 201 210 227
1307 575 1058.2891845703125 186 187 205
1325 575 1068.58642578125 188 186 207
1326 575 1069.5233154296875 189 187 208
1331 575 1072.3343505859375 196 197 217
1336 575 1074.208984375 194 197 216
1337 575 1075.146484375 186 187 207
1355 575 1085.46630859375 201 204 221
1356 575 1086.405029296875 198 204 220
1369 575 1093.9195556640625 198 201 220
1370 575 1094.859375 207 212 231
1371 575 1095.7991943359375 205 212 230
1372 575 1096.7392578125 206 211 230
1376 575 1098.61962890625 209 215 231
1377 575 1099.5599365234375 209 212 229
1381 575 1101.44091796875 207 214 230
1382 575 1102.3814697265625 203 212 229
1386 575 1103.322265625 209 216 232
1387 575 1104.2630615234375 204 213 228
1062 576 935.7456665039062 178 179 197
1081 576 943.9857177734375 185 192 211
1082 576 944.902099609375 179 186 204
1085 576 945.8186645507812 187 194 212
1089 576 946.7354736328125 194 203 220
1090 576 947.65234375 189 198 213
1105 576 954.9937133789062 199 208 225
1106 576 955.912109375 201 210 227
1117 576 961.426025390625 206 213 229
1288 576 1048.363525390625 187 188 208
1295 576 1052.099853515625 181 187 203
1296 576 1053.0341796875 187 193 209
1297 576 1053.96875 191 196 215
1302 576 1056.77294921875 191 198 214
1307 576 1058.6429443359375 192 198 214
1325 576 1068.9368896484375 203 206 223
1326 576 1069.8734130859375 199 205 221
1327 576 1070.8099365234375 198 204 220
1331 576 1072.68359375 203 210 226
1336 576 1074.5576171875 198 210 224
1337 576 1075.4947509765625 197 206 221
1355 576 1085.8111572265625 204 216 228
1356 576 1086.749755859375 206 218 230
1357 576 1087.6883544921875 200 212 224
1376 576 1098.96044921875 206 212 226
1808 576 1376.9229736328125 164 180 205
1816 576 1381.73876953125 162 179 205
1047 577 928.8406982421875 174 177 196
1056 577 932.4939575195312 181 182 203
1057 577 933.40771484375 186 187 208
1062 577 936.1500854492188 194 197 214
1066 577 937.0645751953125 194 197 216
1067 577 937.9791870117188 191 194 213
1081 577 944.3865966796875 203 210 228
1082 577 945.3026123046875 197 204 222
1085 577 946.2188110351562 202 209 227
1086 577 947.1351318359375 198 205 223
1090 577 948.0516967773438 204 213 228
1105 577 955.3899536132812 194 203 220
1256 577 1031.9384765625 181 182 202
1260 577 1033.80126953125 192 195 214
1261 577 1034.7327880859375 179 182 201
1265 577 1035.66455078125 192 193 211
1266 577 1036.5963134765625 184 185 205
1278 577 1043.1226806640625 194 197 216
1279 577 1044.0555419921875 184 187 206
1289 577 1049.6551513671875 193 196 213
1295 577 1052.4566650390625 188 195 211
1297 577 1054.324951171875 197 204 220
1302 577 1057.128173828125 198 210 224
1306 577 1058.0628662109375 200 209 224
1307 577 1058.9976806640625 199 206 222
1325 577 1069.2880859375 206 212 228
1326 577 1070.2242431640625 202 209 225
1327 577 1071.16064453125 204 211 227
1331 577 1073.0335693359375 206 216 228
1332 577 1073.97021484375 197 204 220
1336 577 1074.906982421875 202 214 226
1023 578 918.3115234375 164 166 187
1024 578 919.221923828125 169 171 192
1025 578 920.1326293945312 171 176 196
1032 578 921.9544677734375 178 181 200
1033 578 922.8656616210938 178 181 200
1046 578 928.336669921875 195 202 220
1047 578 929.2491455078125 195 202 220
1061 578 935.6414794921875 200 205 224
1066 578 937.469482421875 205 212 228
1067 578 938.3837280273438 197 204 220
1237 578 1021.1415405273438 186 189 208
1238 578 1022.0709228515625 186 187 207
1250 578 1028.58056640625 188 191 210
1251 578 1029.5111083984375 194 197 216
1255 578 1031.3724365234375 195 198 217
1256 578 1032.30322265625 190 196 212
1260 578 1034.1654052734375 191 198 216
1261 578 1035.0965576171875 193 200 218
1265 578 1036.0279541015625 199 207 220
1266 578 1036.95947265625 193 200 216
1278 578 1043.483642578125 200 209 224
1279 578 1044.4161376953125 203 210 226
1289 578 1050.0137939453125 200 210 222
1295 578 1052.8143310546875 196 206 218
1296 578 1053.748046875 201 211 223
1301 578 1056.550048828125 197 207 219
1302 578 1057.4842529296875 199 211 223
712 579 808.6216430664062 84 88 89
748 579 820.0006103515625 152 159 169
1000 579 908.7276611328125 167 172 191
1009 579 912.3606567382812 186 191 210
1010 579 913.2694091796875 175 180 200
1024 579 919.6358032226562 199 201 222
1028 579 921.4564819335938 198 203 222
1029 579 922.3670654296875 197 202 221
1031 579 921.4564819335938 202 204 225
1032 579 922.3670654296875 202 207 226
1033 579 923.27783203125 192 197 216
1046 579 928.7464599609375 195 202 218
1047 579 929.6585693359375 200 207 223
1210 579 1007.5911865234375 180 181 202
1221 579 1013.1554565429688 178 181 200
1237 579 1021.5111083984375 200 203 222
1238 579 1022.4402465820312 197 200 219
1250 579 1028.947509765625 198 203 222
1251 579 1029.877685546875 208 213 232
1252 579 1030.8079833984375 206 211 230
1255 579 1031.73828125 206 212 228
1256 579 1032.6688232421875 205 212 228
1257 579 1033.5994873046875 190 197 213
1260 579 1034.5302734375 207 216 231
1261 579 1035.4613037109375 206 215 230
1265 579 1036.392333984375 205 213 226
1266 579 1037.323486328125 201 208 224
716 580 811.6600341796875 146 146 148
723 580 813.419921875 150 154 163
970 580 897.3672485351562 170 175 195
974 580 899.1774291992188 169 174 194
977 580 899.1774291992188 177 182 201
987 580 903.7062377929688 181 188 206
1000 580 909.1473999023438 184 191 209
1010 580 913.68701171875 197 204 222
1024 580 920.050537109375 204 211 229
1028 580 921.870361328125 196 203 221
1185 580 995.9327392578125 174 179 199
1189 580 997.7825317382812 179 184 204
1193 580 998.7076416015625 177 182 202
1194 580 999.6329345703125 178 183 203
1210 580 1007.9667358398438 189 194 213
1211 580 1008.8934326171875 194 199 218
1212 580 1009.8202514648438 186 191 210
1216 580 1011.6743774414062 192 201 216
1221 580 1013.5289916992188 188 197 212
1237 580 1021.881591796875 202 214 228
1238 580 1022.8103637695312 202 214 228
713 581 809.4998168945312 89 87 88
714 581 810.3782958984375 103 99 96
715 581 811.2570190429688 114 110 107
716 581 812.1360473632812 142 142 144
956 581 891.4673461914062 176 178 199
970 581 897.7933959960938 183 188 208
988 581 905.0353393554688 199 204 223
1005 581 912.2899780273438 199 202 221
1167 581 986.1541748046875 180 183 202
1168 581 987.0770263671875 186 187 208
1184 581 995.3893432617188 186 191 211
1185 581 996.313720703125 182 187 206
1189 581 998.162841796875 199 202 221
1193 581 999.0875854492188 197 202 221
1194 581 1000.0125122070312 195 202 220
1210 581 1008.3432006835938 200 207 225
1211 581 1009.26953125 200 207 225
1212 581 1010.196044921875 196 201 220
1221 581 1013.9033203125 191 203 217
1645 581 1268.02880859375 180 188 211
712 582 809.1007080078125 87 87 89
713 582 809.9783935546875 100 96 95
714 582 810.8563232421875 121 118 113
939 582 885.5845336914062 178 185 203
943 582 886.4857788085938 174 181 199
966 582 896.412841796875 195 200 219
970 582 898.220458984375 199 208 225
973 582 899.1245727539062 192 199 217
1142 582 974.5614624023438 183 188 207
1147 582 977.3233642578125 181 186 205
1151 582 979.1654663085938 180 181 202
1156 582 981.0081787109375 183 186 205
1167 582 986.5399169921875 198 204 220
1168 582 987.46240234375 184 189 208
1183 582 994.8477172851562 193 200 218
1184 582 995.7715454101562 200 212 226
1185 582 996.695556640625 200 212 226
1188 582 997.6196899414062 201 210 227
1189 582 998.5439453125 204 213 228
1190 582 999.4683837890625 198 207 222
1193 582 999.4683837890625 199 211 225
1194 582 1000.3929443359375 196 208 222
712 583 809.5807495117188 84 84 86
914 583 876.1244506835938 174 181 199
915 583 877.0228271484375 177 182 201
922 583 878.8202514648438 177 184 203
935 583 884.2177124023438 197 200 219
936 583 885.1180419921875 195 198 217
1122 583 965.7603149414062 185 186 207
1126 583 967.5975341796875 185 187 208
1130 583 968.5164184570312 179 182 201
1142 583 974.9528198242188 194 199 218
1143 583 975.8729248046875 193 198 217
1147 583 977.7136840820312 195 202 220
1151 583 979.5549926757812 199 204 223
1155 583 980.4758911132812 199 208 223
1156 583 981.39697265625 196 201 220
1168 583 987.8486938476562 204 211 227
882 584 864.9115600585938 170 177 196
913 584 875.6666259765625 180 189 206
914 584 876.5643310546875 186 195 212
935 584 884.6536254882812 200 205 225
1106 584 957.9003295898438 181 182 202
1117 584 963.40283203125 190 193 212
1122 584 966.1563110351562 192 199 217
1126 584 967.9927978515625 195 202 220
1130 584 968.9112548828125 198 210 224
1131 584 969.8298950195312 193 205 219
1142 584 975.3450927734375 200 212 228
1143 584 976.2648315429688 201 213 227
1147 584 978.1047973632812 199 211 225
1156 584 981.78662109375 193 202 219
1167 584 987.3140258789062 196 201 220
882 585 865.3583374023438 178 185 204
892 585 868.0426025390625 188 195 214
1057 585 935.4490966796875 171 174 193
1066 585 939.0979614257812 172 175 194
