ply
format ascii 1.0
element vertex 1283
property float x
property float y
property float z
property float red
property float green
property float blue
end_header
1613 920 1353.7064208984375 174 188 201
1618 920 1356.35546875 184 198 207
1619 920 1357.23876953125 187 199 211
642 921 784.2123413085938 92 62 62
699 921 794.8012084960938 123 26 33
674 922 788.0228271484375 124 29 33
1276 922 1160.0452880859375 54 58 61
675 923 789.4213256835938 124 29 33
697 923 793.6000366210938 124 38 49
1277 923 1161.4271240234375 77 82 88
1278 923 1162.2684326171875 117 123 135
1279 923 1163.110107421875 148 154 170
1280 923 1163.951904296875 155 160 180
676 924 789.04052734375 119 27 30
691 924 792.6064453125 134 39 45
694 924 792.6064453125 162 82 93
1113 924 1035.900146484375 59 69 79
1114 924 1036.69189453125 62 72 84
1116 924 1038.2764892578125 50 58 71
1117 924 1039.0693359375 56 64 77
1118 924 1039.862548828125 67 75 88
1276 924 1161.12744140625 54 59 65
1277 924 1161.9681396484375 81 90 97
1278 924 1162.80908203125 105 114 123
1279 924 1163.6502685546875 141 149 162
1280 924 1164.49169921875 152 158 174
1116 925 1038.886474609375 57 65 78
1119 925 1041.2646484375 60 66 78
1277 925 1162.509765625 82 90 101
1278 925 1163.350341796875 95 103 114
1279 925 1164.191162109375 125 133 146
1280 925 1165.0322265625 129 132 149
1281 925 1165.87353515625 138 141 158
1292 925 1170.926513671875 182 192 204
677 926 790.4384765625 130 35 39
1119 926 1041.873779296875 63 69 83
1292 926 1171.46484375 174 176 191
1293 926 1172.3074951171875 176 180 192
1294 926 1173.1505126953125 175 179 191
1299 926 1175.6806640625 184 193 202
1303 926 1177.36865234375 188 201 209
1686 926 1399.892822265625 181 206 211
696 927 796.207275390625 135 42 53
698 927 797.4020385742188 122 25 34
1302 927 1177.0611572265625 167 176 185
1303 927 1177.9049072265625 181 191 200
1304 927 1178.7489013671875 172 180 193
1310 927 1181.2823486328125 166 171 191
1311 927 1182.1273193359375 188 195 214
1312 927 1182.9725341796875 190 199 216
1304 928 1179.285400390625 164 160 183
1310 928 1181.817626953125 163 164 185
1311 928 1182.6622314453125 170 172 193
1312 928 1183.507080078125 174 181 197
1313 928 1184.3521728515625 169 176 192
1317 928 1186.04296875 175 184 199
1318 928 1186.8887939453125 179 191 203
1321 928 1186.8887939453125 184 191 207
1322 928 1187.73486328125 188 194 208
1323 928 1188.5810546875 184 190 202
643 929 788.0228271484375 102 53 56
687 929 794.6326293945312 126 25 31
1310 929 1182.3536376953125 158 156 180
1312 929 1184.042236328125 160 166 182
1313 929 1184.886962890625 165 171 187
1317 929 1186.5770263671875 163 170 186
1318 929 1187.42236328125 166 176 188
1321 929 1187.42236328125 171 177 193
1322 929 1188.26806640625 176 182 194
1323 929 1189.114013671875 180 186 198
1324 929 1189.9600830078125 167 170 185
673 930 792.6423950195312 122 25 32
1116 930 1041.9453125 58 64 78
1322 930 1188.8018798828125 163 161 182
1323 930 1189.6474609375 169 170 188
1324 930 1190.4931640625 159 157 178
668 931 792.2682495117188 120 24 28
669 931 792.8580932617188 121 25 29
696 931 798.616943359375 133 36 43
1341 931 1199.49365234375 177 187 199
1342 931 1200.3416748046875 178 192 201
1343 931 1201.1898193359375 174 187 196
1751 931 1443.159423828125 182 204 215
643 932 790.4384765625 92 43 47
678 932 794.255615234375 124 29 33
1342 932 1200.871826171875 170 178 191
1343 932 1201.7196044921875 165 173 186
1344 932 1202.567626953125 166 169 188
1346 932 1202.567626953125 167 170 187
1347 932 1203.416015625 171 177 193
1348 932 1204.2645263671875 171 180 195
1352 932 1205.11328125 180 192 204
1353 932 1205.9622802734375 181 194 203
1354 932 1206.8115234375 168 176 189
1753 932 1445.3955078125 166 186 197
1758 932 1448.07763671875 167 195 206
643 933 791.2445678710938 98 52 55
1346 933 1203.09765625 162 163 183
1347 933 1203.945556640625 161 164 183
1348 933 1204.793701171875 161 166 185
1352 933 1205.6422119140625 169 179 191
1353 933 1206.49072265625 165 175 187
1354 933 1207.339599609375 163 169 185
643 934 792.0511474609375 109 64 69
1278 934 1166.6104736328125 148 158 168
1352 934 1206.171630859375 168 169 189
1371 934 1216.3658447265625 174 180 196
1372 934 1217.2169189453125 179 189 201
1373 934 1218.068115234375 181 194 203
1374 934 1218.9195556640625 174 183 198
643 935 792.8580932617188 104 61 68
1119 935 1046.1549072265625 64 72 85
1275 935 1167.156005859375 70 68 82
1278 935 1167.156005859375 116 124 135
1279 935 1167.9940185546875 147 157 166
1280 935 1168.832275390625 161 173 185
1281 935 1169.6708984375 149 161 175
1372 935 1217.7421875 167 175 188
1373 935 1218.593017578125 173 183 195
1374 935 1219.444091796875 169 176 192
643 936 793.66552734375 104 63 69
690 936 799.2552490234375 137 33 42
691 936 799.8462524414062 130 28 39
694 936 799.8462524414062 156 65 74
696 936 801.0305786132812 122 27 35
697 936 801.6239624023438 122 25 32
1117 936 1043.962158203125 69 79 89
1279 936 1168.5396728515625 151 152 172
1281 936 1170.2158203125 152 155 174
1372 936 1218.26806640625 168 169 189
1373 936 1219.1185302734375 166 169 188
1374 936 1219.96923828125 157 158 179
1386 936 1225.9306640625 174 175 193
1387 936 1226.783203125 190 193 208
1388 936 1227.635986328125 187 195 208
1389 936 1228.4888916015625 182 192 204
1393 936 1230.195556640625 191 199 212
691 937 800.65283203125 128 26 37
696 937 801.8359985351562 132 39 47
697 937 802.4288330078125 126 31 37
1115 937 1042.99951171875 74 84 93
1118 937 1045.365478515625 60 68 79
1293 937 1176.6329345703125 160 166 182
1294 937 1177.4727783203125 158 164 180
1295 937 1178.312744140625 148 154 170
1299 937 1179.99365234375 166 180 189
1386 937 1226.453857421875 158 159 177
1387 937 1227.3060302734375 168 171 188
1388 937 1228.1583251953125 170 178 191
1389 937 1229.010986328125 166 178 190
1392 937 1229.86376953125 172 180 193
1393 937 1230.7169189453125 178 186 197
1394 937 1231.5701904296875 174 184 196
1395 937 1232.423583984375 169 179 191
1397 937 1232.423583984375 188 198 210
1398 937 1233.27734375 187 200 209
1400 937 1234.9854736328125 180 187 203
655 938 795.28173828125 115 26 30
692 938 802.0504760742188 134 34 44
1105 938 1038.11083984375 73 79 91
1118 938 1045.97998046875 69 73 85
1119 938 1046.768798828125 60 64 76
1299 938 1180.5355224609375 159 165 181
1302 938 1181.3758544921875 164 165 183
1303 938 1182.216552734375 165 168 183
1304 938 1183.0574951171875 164 167 184
1393 938 1231.23876953125 171 174 193
1394 938 1232.0916748046875 161 166 185
1397 938 1232.94482421875 164 170 186
1398 938 1233.7982177734375 171 179 192
1399 938 1234.6517333984375 176 182 196
1400 938 1235.505615234375 165 166 184
1403 938 1235.505615234375 184 190 204
1404 938 1236.359619140625 184 192 203
1405 938 1237.2137451171875 168 176 189
1406 938 1238.0682373046875 172 175 192
698 939 804.6322021484375 123 28 32
1105 939 1038.73046875 64 70 82
1118 939 1046.594970703125 71 75 87
1119 939 1047.3834228515625 66 70 82
1304 939 1183.5987548828125 161 162 182
1310 939 1186.121826171875 155 156 176
1311 939 1186.96337890625 160 163 182
1312 939 1187.80517578125 153 161 174
1313 939 1188.6470947265625 173 181 192
1317 939 1190.3319091796875 177 183 197
1399 939 1235.1728515625 166 169 184
1403 939 1236.0262451171875 174 177 194
1404 939 1236.8800048828125 169 175 189
1405 939 1237.7337646484375 165 171 185
643 940 796.0904541015625 102 57 62
657 940 796.8995971679688 114 23 28
1106 940 1040.1351318359375 69 77 88
1117 940 1046.4229736328125 56 58 71
1118 940 1047.2105712890625 69 73 85
1313 940 1189.1866455078125 158 160 181
1314 940 1190.028564453125 161 162 183
1317 940 1190.8707275390625 159 160 181
1318 940 1191.7130126953125 157 160 179
1419 940 1245.94580078125 178 184 200
1420 940 1246.801513671875 177 185 198
1421 940 1247.6573486328125 174 182 195
1424 940 1248.5135498046875 186 196 206
1425 940 1249.369873046875 182 195 204
1115 941 1045.4664306640625 69 79 89
1319 941 1193.09423828125 158 159 180
1323 941 1193.936767578125 160 165 184
1324 941 1194.7794189453125 154 156 177
1419 941 1246.4637451171875 167 170 187
1420 941 1247.319091796875 163 169 185
1421 941 1248.1746826171875 153 159 175
1424 941 1249.0303955078125 179 189 201
1425 941 1249.8863525390625 170 180 190
1426 941 1250.7425537109375 169 177 190
1430 941 1252.45556640625 187 200 209
1431 941 1253.3123779296875 176 186 196
643 942 796.0904541015625 93 51 55
675 942 799.1057739257812 118 28 30
696 942 805.0621337890625 135 39 50
1114 942 1045.2989501953125 69 79 89
1424 942 1249.5479736328125 169 172 191
1430 942 1252.9716796875 169 175 191
1431 942 1253.828125 171 174 191
1432 942 1254.684814453125 163 161 183
1436 942 1255.541748046875 180 186 198
1437 942 1256.3988037109375 169 177 190
1438 942 1257.256103515625 173 179 195
1439 942 1258.1136474609375 181 187 203
643 943 796.8995971679688 98 59 64
1115 943 1046.703369140625 71 79 90
1341 943 1204.289794921875 147 149 172
1342 943 1205.1343994140625 161 166 185
1343 943 1205.979248046875 157 163 179
1344 943 1206.8243408203125 153 158 177
1347 943 1207.669677734375 165 174 189
1349 943 1209.3609619140625 157 167 179
1436 943 1256.057373046875 180 183 198
1437 943 1256.9140625 159 165 179
1438 943 1257.77099609375 156 159 176
1439 943 1258.628173828125 167 170 187
1453 943 1266.352294921875 186 194 205
643 944 797.709228515625 100 65 69
649 944 798.74462890625 117 28 32
673 944 800.7258911132812 120 28 31
687 944 801.8989868164062 124 23 29
1347 944 1208.2039794921875 156 158 179
1348 944 1209.0491943359375 161 162 183
1349 944 1209.8946533203125 160 158 180
1352 944 1209.8946533203125 163 166 185
1353 944 1210.740234375 162 169 187
1354 944 1211.586181640625 163 168 187
1451 944 1265.14697265625 176 179 194
1452 944 1266.0054931640625 177 180 195
1453 944 1266.8642578125 172 175 190
643 945 798.5192260742188 85 54 59
677 945 800.951904296875 124 32 37
683 945 802.1221923828125 123 23 31
689 945 802.7085571289062 129 25 32
643 946 799.3297119140625 93 63 65
697 946 806.4595336914062 124 29 37
1115 946 1047.9427490234375 60 68 81
1473 946 1279.06298828125 181 189 202
1474 946 1279.923828125 180 190 200
1475 946 1280.784912109375 177 185 196
1479 946 1282.5076904296875 194 204 214
688 947 804.9149169921875 126 25 31
693 947 806.677734375 140 45 53
1106 947 1043.8663330078125 63 72 87
1304 947 1187.404296875 115 129 130
1305 947 1188.242431640625 108 122 123
1372 947 1222.4962158203125 156 154 175
1373 947 1223.34375 164 165 183
1374 947 1224.1915283203125 160 163 180
1472 947 1278.7117919921875 168 169 189
1473 947 1279.5721435546875 168 171 188
1474 947 1280.4327392578125 173 179 193
1475 947 1281.29345703125 164 170 184
1479 947 1283.015625 174 182 193
1480 947 1283.876953125 175 183 194
1481 947 1284.738525390625 171 179 190
1485 947 1285.6002197265625 186 196 206
1486 947 1286.462158203125 177 185 198
655 948 800.951904296875 117 32 35
678 948 803.9713745117188 122 30 35
679 948 803.388427734375 121 26 32
690 948 805.7251586914062 133 34 39
691 948 806.3113403320312 128 29 34
692 948 806.8983764648438 132 35 42
780 948 850.5492553710938 116 44 47
1313 948 1192.9803466796875 136 152 152
1388 948 1232.359130859375 162 165 184
1389 948 1233.2088623046875 158 163 182
1390 948 1234.0587158203125 159 161 182
1485 948 1286.107666015625 177 180 197
1486 948 1286.9693603515625 170 171 189
643 949 801.763671875 84 42 44
655 949 801.763671875 119 38 37
688 949 806.5358276367188 128 27 33
689 949 807.1213989257812 130 29 35
690 949 806.5358276367188 133 34 39
691 949 807.1213989257812 135 36 41
692 949 807.7078857421875 137 40 47
696 949 808.2951049804688 140 47 58
780 949 851.3171997070312 118 48 50
1105 949 1015.2053833007812 55 58 75
1111 949 1045.4305419921875 49 57 70
1319 949 1196.88134765625 103 136 129
1390 949 1234.5858154296875 155 153 177
1394 949 1236.2855224609375 162 168 184
1395 949 1237.1358642578125 164 171 187
1398 949 1237.986328125 167 175 188
1399 949 1238.8369140625 170 178 191
1487 949 1288.3385009765625 163 161 182
1508 949 1300.419921875 191 201 211
655 950 802.5758666992188 115 37 37
677 950 805.014892578125 120 28 33
689 950 807.9319458007812 132 28 35
691 950 807.9319458007812 131 32 37
1398 950 1238.512451171875 162 163 184
1399 950 1239.36279296875 164 165 185
1404 950 1241.0640869140625 169 172 187
1405 950 1241.9150390625 172 176 188
1406 950 1242.7662353515625 170 172 187
1507 950 1300.0592041015625 178 184 196
1508 950 1300.923095703125 169 177 190
1513 950 1303.5159912109375 180 193 202
655 951 803.388427734375 113 35 35
659 951 802.8063354492188 116 30 33
660 951 803.388427734375 122 33 37
665 951 802.2250366210938 118 26 31
673 951 805.5966796875 127 38 42
689 951 808.7428588867188 130 26 33
693 951 809.9141845703125 140 45 53
698 951 811.0887451171875 120 23 32
1513 951 1304.018798828125 166 176 186
1514 951 1304.8831787109375 166 174 185
1515 951 1305.7476806640625 166 174 185
1520 951 1307.477294921875 174 182 195
1521 951 1308.3424072265625 172 180 193
1522 951 1309.207763671875 172 182 194
691 952 809.55419921875 136 35 43
697 952 811.3106689453125 122 26 37
1420 952 1251.4810791015625 170 173 190
1421 952 1252.3338623046875 170 173 192
1425 952 1254.0399169921875 175 178 195
1521 952 1308.8441162109375 168 171 188
1522 952 1309.7091064453125 167 173 189
1529 952 1314.036865234375 183 192 201
1530 952 1314.903076171875 192 201 208
1531 952 1315.7694091796875 190 201 207
660 953 805.014892578125 120 34 35
690 953 809.78271484375 137 33 40
691 953 810.365966796875 133 32 40
697 953 812.1206665039062 126 33 43
1425 953 1254.5616455078125 162 163 183
1426 953 1255.4146728515625 165 166 186
1430 953 1257.121337890625 171 181 191
1431 953 1257.9749755859375 165 178 187
1432 953 1258.828857421875 168 178 190
1530 953 1315.4029541015625 167 173 185
1531 953 1316.2689208984375 169 176 186
1535 953 1318.00146484375 177 188 194
1536 953 1318.8680419921875 181 191 200
1537 953 1319.73486328125 173 183 193
1542 953 1321.4688720703125 184 201 208
1543 953 1322.336181640625 181 195 204
661 954 806.4099731445312 121 35 38
663 954 806.4099731445312 121 35 38
1355 954 1217.25146484375 133 133 145
1436 954 1260.203125 172 175 194
1437 954 1261.05712890625 165 168 187
1438 954 1261.9112548828125 164 166 189
1535 954 1318.5010986328125 173 175 190
1540 954 1320.233642578125 173 180 196
1541 954 1321.100341796875 181 191 201
1542 954 1321.967041015625 175 188 197
1543 954 1322.8341064453125 171 181 191
624 955 828.6597900390625 59 52 42
680 955 808.852294921875 120 28 31
687 955 810.0135498046875 126 25 29
1182 955 1083.417724609375 65 56 47
1351 955 1214.421630859375 81 74 81
1558 955 1332.0093994140625 184 198 209
1559 955 1332.8780517578125 180 194 203
1560 955 1333.7469482421875 180 194 203
1564 955 1335.4853515625 182 199 207
634 956 833.8375244140625 60 54 42
670 956 808.0377197265625 123 32 37
671 956 806.8785400390625 120 29 34
673 956 808.0377197265625 117 26 31
688 956 811.4086303710938 129 25 32
844 956 889.811767578125 48 55 65
1173 956 1096.0018310546875 74 65 56
1367 956 1224.5374755859375 119 119 127
1373 956 1227.6065673828125 152 156 167
1452 956 1270.6427001953125 167 170 187
1453 956 1271.498291015625 165 168 185
1558 956 1332.505126953125 168 173 192
1559 956 1333.37353515625 160 167 183
1561 956 1335.11083984375 163 170 186
1564 956 1335.979736328125 172 184 196
1565 956 1336.848876953125 181 195 204
1566 956 1337.71826171875 179 194 201
1567 956 1338.587646484375 169 183 192
1571 956 1340.3271484375 186 204 208
1572 956 1341.197265625 183 198 205
1573 956 1342.0673828125 174 188 197
661 957 808.852294921875 120 29 34
689 957 812.8037719726562 126 22 31
840 957 887.865966796875 48 55 63
841 957 888.5364379882812 49 57 68
842 957 889.20751953125 56 65 80
843 957 889.8792114257812 61 70 85
844 957 890.551513671875 64 71 87
845 957 891.2244262695312 64 72 85
847 957 892.5721435546875 64 72 85
850 957 893.2468872070312 55 66 84
851 957 893.9222412109375 47 56 73
1171 957 1074.313232421875 65 56 49
1570 957 1339.951171875 173 186 195
1571 957 1340.8206787109375 171 188 195
1572 957 1341.6903076171875 173 188 195
1573 957 1342.5601806640625 161 174 183
1576 957 1342.5601806640625 182 196 205
1577 957 1343.4302978515625 182 196 207
1578 957 1344.300537109375 179 188 203
1579 957 1345.1710205078125 175 182 198
670 958 809.667236328125 122 33 35
672 958 809.08837890625 121 30 35
696 958 814.7815551757812 135 43 54
697 958 815.3649291992188 125 32 42
841 958 889.2783813476562 59 68 83
843 958 890.6199951171875 57 65 84
844 958 891.291748046875 56 65 80
845 958 891.964111328125 60 69 84
851 958 894.6597290039062 54 65 83
852 958 895.3351440429688 51 60 77
1370 958 1228.14208984375 74 66 79
1372 958 1227.2978515625 72 61 75
1390 958 1238.2911376953125 171 170 186
1473 958 1283.6669921875 176 182 198
1576 958 1343.0535888671875 167 174 190
1577 958 1343.92333984375 170 177 193
1578 958 1344.7933349609375 159 166 184
1579 958 1345.6634521484375 160 165 184
672 959 809.904296875 120 29 34
673 959 810.4825439453125 120 29 34
674 959 811.0616455078125 121 30 35
688 959 813.8507080078125 126 22 29
837 959 887.34716796875 53 57 68
839 959 888.6827392578125 56 68 84
842 959 890.6907348632812 50 61 81
851 959 895.397705078125 66 77 95
1385 959 1234.591796875 78 79 83
1386 959 1235.4376220703125 102 101 107
1387 959 1236.2835693359375 119 116 123
1388 959 1237.1297607421875 126 123 132
1389 959 1237.9761962890625 147 143 157
1390 959 1238.8228759765625 149 142 160
1393 959 1239.669677734375 163 167 178
1394 959 1240.516845703125 157 166 175
1395 959 1241.3641357421875 157 167 176
1399 959 1243.0595703125 175 188 197
1475 959 1285.8966064453125 163 166 183
1479 959 1287.612548828125 169 172 191
1480 959 1288.4708251953125 163 170 186
1485 959 1290.18798828125 176 186 196
1594 959 1354.8642578125 176 190 201
1595 959 1355.7359619140625 182 201 208
1596 959 1356.60791015625 165 186 191
1597 959 1357.47998046875 171 191 198
644 960 808.0377197265625 107 81 82
691 960 813.6172485351562 134 34 42
1188 960 1095.2059326171875 76 63 55
1385 960 1235.1258544921875 73 74 79
1387 960 1236.81689453125 83 77 87
1388 960 1237.6627197265625 105 94 108
1389 960 1238.5087890625 112 99 117
1391 960 1240.2015380859375 119 104 127
1394 960 1241.04833984375 143 141 155
1395 960 1241.8953857421875 144 146 159
1399 960 1243.5899658203125 160 162 177
1400 960 1244.4376220703125 159 161 176
1401 960 1245.2855224609375 158 161 178
1404 960 1245.2855224609375 166 174 187
1487 960 1292.4178466796875 158 159 180
1594 960 1355.3546142578125 172 179 197
1595 960 1356.22607421875 162 174 188
1596 960 1357.09765625 162 176 189
1597 960 1357.969482421875 161 173 187
670 961 811.29833984375 117 26 31
675 961 813.2711791992188 127 36 41
688 961 813.8507080078125 124 23 29
697 961 816.1770629882812 120 31 37
1207 961 1115.0447998046875 78 68 59
1217 961 1120.68994140625 76 67 58
1225 961 1125.540771484375 71 65 53
1387 961 1237.350830078125 72 69 78
1388 961 1238.1962890625 80 69 83
1390 961 1239.887939453125 95 82 102
1399 961 1244.1209716796875 123 121 142
1406 961 1247.511474609375 140 145 164
1609 961 1364.5648193359375 161 175 186
1610 961 1365.4376220703125 159 173 186
1611 961 1366.3106689453125 171 183 197
1612 961 1367.1839599609375 174 186 198
1613 961 1368.057373046875 183 196 205
1614 961 1368.9310302734375 182 197 204
1619 961 1371.552734375 184 201 211
1620 961 1372.427001953125 188 200 214
643 962 808.2728271484375 83 68 63
691 962 815.245361328125 131 31 39
692 962 815.8259887695312 134 37 44
846 962 894.8575439453125 52 61 78
857 962 900.9267578125 66 73 89
1196 962 1106.8031005859375 84 76 65
1390 962 1240.4212646484375 76 78 90
1391 962 1241.26708984375 74 76 89
1420 962 1255.6802978515625 175 183 196
1422 962 1257.3802490234375 174 177 194
1507 962 1304.6168212890625 166 175 190
1508 962 1305.4776611328125 166 176 188
1509 962 1306.3387451171875 151 157 171
1611 962 1366.7984619140625 162 167 189
1612 962 1367.67138671875 169 174 193
1614 962 1369.417724609375 170 177 193
1615 962 1370.291259765625 168 175 191
1619 962 1372.03857421875 169 178 193
1620 962 1372.91259765625 176 185 200
1621 962 1373.7867431640625 171 178 194
1625 962 1375.5355224609375 180 200 207
692 963 816.6400756835938 129 32 39
1161 963 1087.8497314453125 66 64 49
1177 963 1097.813232421875 66 58 47
1223 963 1122.6776123046875 75 65 56
1391 963 1241.8006591796875 57 64 72
1394 963 1242.6463623046875 74 86 102
1395 963 1243.4923095703125 84 97 114
1398 963 1244.33837890625 79 87 106
1400 963 1246.03125 92 100 119
1419 963 1255.3585205078125 157 158 178
1509 963 1306.847412109375 159 162 179
1514 963 1309.4307861328125 165 171 187
1515 963 1310.2923583984375 161 164 181
1522 963 1313.740478515625 166 173 189
1619 963 1372.5250244140625 169 176 194
1621 963 1374.2725830078125 162 167 186
1626 963 1376.89501953125 170 188 198
1631 963 1378.644287109375 166 189 195
1632 963 1379.5191650390625 171 191 198
1633 963 1380.3941650390625 175 194 201
1634 963 1381.269287109375 172 190 200
678 964 813.7481079101562 127 40 46
691 964 816.8751220703125 126 31 37
696 964 818.0348510742188 124 37 46
697 964 818.6159057617188 127 37 46
835 964 889.0022583007812 54 66 78
841 964 892.9955444335938 80 96 111
844 964 895.0005493164062 63 76 93
1195 964 1107.2000732421875 76 70 56
1403 964 1246.563720703125 81 88 104
1404 964 1247.41015625 81 92 112
1405 964 1248.2568359375 87 98 120
1406 964 1249.1036376953125 84 95 117
1521 964 1313.3848876953125 163 164 185
1523 964 1315.109130859375 164 167 186
697 965 819.4296875 125 35 44
835 965 889.0022583007812 55 67 79
844 965 895.0005493164062 58 71 88
850 965 897.6825561523438 52 68 83
1172 965 1084.312255859375 68 62 50
1404 965 1247.9427490234375 57 69 83
1407 965 1250.4822998046875 69 80 98
1451 965 1273.4288330078125 186 191 210
1531 965 1320.791015625 174 180 192
1536 965 1323.3812255859375 170 180 190
1537 965 1324.2451171875 175 185 195
1649 965 1390.9927978515625 165 177 191
1650 965 1391.8692626953125 178 192 203
1651 965 1392.745849609375 176 190 201
1652 965 1393.62255859375 169 181 197
1656 965 1395.376708984375 186 205 209
534 966 795.5658569335938 57 55 42
555 966 801.8803100585938 58 56 43
561 966 804.2014770507812 57 55 40
572 966 808.8831787109375 59 57 44
837 966 891.0780029296875 78 87 102
838 966 891.74267578125 51 60 77
840 966 893.0739135742188 59 70 88
844 966 895.7438354492188 60 71 91
853 966 900.4398803710938 53 58 80
1156 966 1069.961181640625 68 61 53
1158 966 1071.5302734375 60 53 45
1421 966 1258.64208984375 115 131 146
1541 966 1325.6126708984375 171 174 189
1542 966 1326.4765625 165 168 185
1543 966 1327.340576171875 169 172 189
1544 966 1328.204833984375 171 169 190
1651 966 1393.2271728515625 175 182 200
1652 966 1394.1036376953125 157 162 182
1656 966 1395.8570556640625 175 188 196
1657 966 1396.7340087890625 177 190 198
1658 966 1397.6112060546875 160 169 184
1662 966 1399.365966796875 174 191 199
1663 966 1400.2435302734375 179 196 204
1664 966 1401.121337890625 172 189 197
1668 966 1401.999267578125 182 200 210
838 967 892.48974609375 55 64 81
840 967 893.8198852539062 51 62 80
841 967 894.4859008789062 66 77 95
842 967 895.1525268554688 66 77 97
843 967 895.8197631835938 63 74 94
853 967 901.1798095703125 58 63 83
860 967 904.5496215820312 75 93 117
861 967 905.2254028320312 46 64 88
1420 967 1258.323486328125 100 114 125
1425 967 1260.868408203125 101 121 130
1426 967 1261.717041015625 123 146 154
1427 967 1262.5660400390625 117 140 148
1430 967 1263.4151611328125 109 126 136
1658 967 1398.091552734375 158 163 183
1663 967 1400.7230224609375 164 178 189
1664 967 1401.6004638671875 165 179 190
1669 967 1403.35595703125 182 199 209
1670 967 1404.2340087890625 168 185 195
1671 967 1405.112060546875 162 178 191
1672 967 1405.9903564453125 168 184 199
555 968 802.3590087890625 55 56 42
583 968 811.67724609375 62 56 44
669 968 816.776611328125 119 29 31
697 968 821.0584716796875 126 37 43
832 968 889.2654418945312 48 59 77
843 968 896.5645751953125 65 76 94
855 968 903.2651977539062 139 150 170
1150 968 1066.5106201171875 59 55 44
1182 968 1098.036865234375 73 60 54
1185 968 1100.423583984375 70 60 50
1186 968 1101.2197265625 85 72 64
1195 968 1107.2095947265625 78 68 58
1427 968 1263.0946044921875 93 118 115
1432 968 1265.6417236328125 109 137 138
1433 968 1266.4912109375 106 131 135
1436 968 1266.4912109375 118 140 138
1437 968 1267.3409423828125 109 134 131
1475 968 1289.5087890625 185 198 207
1558 968 1336.9925537109375 168 171 190
1559 968 1337.8580322265625 170 173 190
1560 968 1338.7236328125 174 177 194
1561 968 1339.5894775390625 175 178 193
1671 968 1405.590576171875 157 168 188
1687 968 1415.257568359375 181 197 212
600 969 818.4088134765625 62 51 45
693 969 821.2947387695312 131 42 46
695 969 820.7167358398438 129 42 48
845 969 898.6439819335938 58 67 82
1166 969 1083.607421875 68 61 51
1177 969 1094.6748046875 74 64 54
1181 969 1097.8492431640625 76 63 57
1192 969 1104.2142333984375 73 60 52
1434 969 1267.8682861328125 86 106 104
1440 969 1270.4176025390625 113 132 136
1441 969 1271.267822265625 120 141 146
1567 969 1343.5538330078125 169 172 191
1571 969 1345.2869873046875 174 182 195
1572 969 1346.15380859375 171 179 192
1577 969 1347.887939453125 184 199 204
1686 969 1414.85400390625 171 179 198
1687 969 1415.7333984375 165 178 194
1688 969 1416.6129150390625 174 190 203
1689 969 1417.4925537109375 170 188 200
1690 969 1418.372314453125 158 174 189
644 970 813.7481079101562 97 71 70
691 970 820.1396484375 128 28 36
693 970 821.2947387695312 129 40 46
695 970 820.7167358398438 126 41 46
1180 970 1097.6634521484375 75 65 55
1187 970 1100.840087890625 75 67 56
1192 970 1104.8184814453125 73 60 52
1446 970 1274.3453369140625 114 134 135
1447 970 1275.196044921875 117 138 139
1451 970 1276.0469970703125 101 123 134
1452 970 1276.898193359375 100 120 129
1453 970 1277.7496337890625 112 131 138
1454 970 1278.6011962890625 116 130 139
1572 970 1346.6524658203125 163 165 186
1578 970 1349.253173828125 171 179 192
1580 970 1350.98779296875 158 163 182
1687 970 1416.209716796875 169 175 197
1688 970 1417.0888671875 162 173 191
1689 970 1417.96826171875 160 173 190
1690 970 1418.8477783203125 147 158 178
606 971 820.6107177734375 62 53 46
644 971 814.5655517578125 95 74 69
687 971 819.8060913085938 123 24 29
692 971 821.5333251953125 127 35 40
696 971 822.1107177734375 122 35 41
697 971 822.6889038085938 121 34 40
841 971 895.9782104492188 67 87 98
860 971 906.025390625 64 76 98
861 971 906.7000732421875 45 57 79
1165 971 1086.414794921875 68 60 49
1167 971 1087.9912109375 68 60 49
1177 971 1095.8946533203125 67 58 49
1192 971 1103.8319091796875 74 64 55
1200 971 1107.8131103515625 74 64 55
1455 971 1279.9769287109375 100 115 120
1578 971 1349.75146484375 164 169 188
1711 971 1431.6494140625 171 187 202
1712 971 1432.531005859375 168 191 199
1713 971 1433.4127197265625 173 201 205
1714 971 1434.2945556640625 174 204 206
581 972 811.9907836914062 63 61 48
835 972 892.74853515625 54 66 78
839 972 895.3970947265625 59 83 93
840 972 896.0608520507812 65 87 98
841 972 896.7251586914062 52 70 82
842 972 897.3900756835938 57 73 86
843 972 898.0556640625 63 75 89
851 972 902.0620727539062 76 84 107
852 972 902.7319946289062 67 71 96
853 972 903.4024658203125 62 68 94
854 972 904.0735473632812 65 75 100
861 972 907.4381713867188 48 56 77
1158 972 1079.1737060546875 65 57 46
1168 972 1089.394775390625 74 68 56
1177 972 1094.132080078125 74 68 56
1180 972 1096.50537109375 72 66 54
1190 972 1102.8489990234375 62 53 44
1271 972 1151.437744140625 77 75 63
1272 972 1152.25 88 86 74
1453 972 1278.7994384765625 56 77 70
1509 972 1310.4232177734375 179 194 201
1594 972 1359.79296875 169 174 194
1595 972 1360.66162109375 168 177 194
1711 972 1432.121826171875 161 169 190
1712 972 1433.003173828125 163 179 194
1713 972 1433.8846435546875 167 187 196
1714 972 1434.7662353515625 158 181 187
1715 972 1435.64794921875 153 173 182
1719 972 1437.411865234375 164 182 194
1720 972 1438.294189453125 171 189 201
1721 972 1439.176513671875 176 194 206
1726 972 1440.941650390625 176 199 207
1727 972 1441.8245849609375 177 197 206
1729 972 1443.5906982421875 168 185 201
1878 972 1539.7799072265625 151 169 193
490 973 779.3182983398438 60 56 44
591 973 814.55322265625 67 65 52
599 973 818.073974609375 69 65 56
636 973 831.2261962890625 55 56 42
644 973 816.2015380859375 84 66 62
678 973 818.6586303710938 113 24 28
690 973 822.0176391601562 127 23 32
692 973 823.1676635742188 131 36 42
696 973 823.743896484375 125 36 42
837 973 894.8212280273438 94 109 116
838 973 895.4830932617188 69 91 102
839 973 896.1456298828125 57 81 93
840 973 896.8087768554688 59 77 91
841 973 897.4725341796875 64 80 95
842 973 898.136962890625 66 80 93
843 973 898.802001953125 60 72 86
849 973 901.46826171875 76 83 99
852 973 903.4744262695312 62 68 92
854 973 904.8148803710938 67 79 101
855 973 905.486083984375 71 86 105
860 973 907.503173828125 58 66 87
861 973 908.1767578125 52 58 80
1162 973 1085.2879638671875 63 57 43
1165 973 1087.6474609375 65 59 45
1167 973 1089.22216796875 63 57 45
1170 973 1091.5869140625 69 63 51
1184 973 1100.2840576171875 82 78 66
1192 973 1102.6630859375 77 69 58
1596 973 1362.0257568359375 164 169 189
1613 973 1372.4613037109375 175 192 199
1720 973 1438.76513671875 165 183 195
1721 973 1439.647216796875 156 174 186
1722 973 1440.5294189453125 158 174 190
1725 973 1440.5294189453125 162 180 194
1726 973 1441.411865234375 163 181 191
1727 973 1442.2943115234375 164 181 191
1728 973 1443.177001953125 160 173 190
1729 973 1444.0599365234375 160 173 190
471 974 773.83203125 67 60 50
484 974 778.03857421875 60 56 44
491 974 779.63134765625 63 57 43
602 974 818.8821411132812 62 58 47
627 974 828.40087890625 60 53 43
697 974 825.1375732421875 123 34 38
698 974 825.71484375 116 25 30
827 974 890.9595947265625 54 59 65
838 974 896.232666015625 63 83 92
839 974 896.8946533203125 61 80 94
840 974 897.5572509765625 64 80 95
841 974 898.220458984375 61 74 90
842 974 898.8843383789062 72 84 98
843 974 899.5487670898438 60 72 86
844 974 900.2138671875 63 77 88
845 974 900.8795776367188 64 77 86
849 974 902.2128295898438 65 71 85
1130 974 1067.3055419921875 62 56 44
1157 974 1079.6337890625 64 55 46
1160 974 1084.336181640625 60 53 43
1167 974 1089.8385009765625 63 57 45
1175 974 1093.7791748046875 68 60 49
1185 974 1100.102294921875 72 66 54
1188 974 1102.47900390625 77 68 59
1201 974 1108.831787109375 75 65 56
1217 974 1117.6014404296875 80 70 61
1266 974 1147.38134765625 72 68 57
1278 974 1154.2291259765625 78 71 61
1521 974 1317.459716796875 169 179 189
1612 974 1372.0831298828125 164 171 189
1613 974 1372.953369140625 163 172 187
1614 974 1373.8238525390625 171 180 195
1615 974 1374.6944580078125 166 173 189
1620 974 1377.3074951171875 176 190 199
1727 974 1442.7646484375 162 173 191
1728 974 1443.6470947265625 151 157 183
614 975 822.640869140625 64 60 51
615 975 823.2332763671875 65 61 52
837 975 896.3218994140625 69 90 93
838 975 896.9827270507812 68 88 97
839 975 897.6441650390625 62 78 93
841 975 898.9688720703125 64 76 92
843 975 900.2960815429688 56 68 82
844 975 900.9605712890625 65 79 92
1141 975 1065.6044921875 67 57 48
1162 975 1086.525634765625 62 53 44
1168 975 1088.8824462890625 60 52 41
1169 975 1089.668701171875 74 66 53
1175 975 1094.3939208984375 66 58 47
1181 975 1097.5509033203125 70 62 51
1182 975 1098.341064453125 73 65 54
1219 975 1119.8009033203125 76 68 57
1463 975 1284.4317626953125 70 64 64
1486 975 1298.2703857421875 162 168 180
1487 975 1299.124755859375 157 161 173
1532 975 1325.7095947265625 175 185 197
1619 975 1376.927734375 163 172 189
1620 975 1377.798583984375 162 171 186
1625 975 1380.4122314453125 166 180 193
1626 975 1381.2838134765625 170 184 195
1627 975 1382.155517578125 163 177 190
1751 975 1458.2523193359375 167 184 200
1752 975 1459.1370849609375 164 183 197
1753 975 1460.02197265625 170 189 203
1754 975 1460.9068603515625 175 193 207
1758 975 1462.6773681640625 173 195 208
1759 975 1463.562744140625 170 192 205
615 976 824.038818359375 63 59 48
620 976 825.8189697265625 64 60 51
640 976 831.803466796875 63 56 48
641 976 832.4061279296875 65 58 48
677 976 822.2633666992188 117 28 34
691 976 823.4105834960938 122 26 30
692 976 823.9854125976562 127 32 38
800 976 876.2853393554688 125 61 62
844 976 901.7078247070312 64 76 90
1119 976 1045.4324951171875 59 52 44
1124 976 1063.9102783203125 65 60 54
1177 976 1095.0091552734375 78 70 59
1187 976 1100.534423828125 86 78 67
1196 976 1106.076416015625 76 68 57
1231 976 1126.0018310546875 63 54 45
1271 976 1149.7286376953125 89 85 73
1474 976 1291.77392578125 83 75 86
1475 976 1292.627197265625 79 71 82
1476 976 1293.4805908203125 95 87 100
1479 976 1294.334228515625 120 108 122
1480 976 1295.18798828125 121 113 126
1627 976 1382.6456298828125 162 168 190
1631 976 1383.5172119140625 166 179 195
1632 976 1384.3890380859375 162 180 192
1753 976 1460.4879150390625 162 177 196
1754 976 1461.3726806640625 157 172 193
1759 976 1464.0277099609375 162 184 197
1760 976 1464.9129638671875 161 183 196
1761 976 1465.7984619140625 156 178 191
1762 976 1466.6839599609375 152 171 188
1767 976 1468.4556884765625 157 190 199
1768 976 1469.3416748046875 153 176 190
1769 976 1470.2279052734375 160 179 196
476 977 775.3534545898438 88 82 66
639 977 832.0006103515625 66 59 51
689 977 824.2293090820312 118 23 27
692 977 824.8035888671875 130 35 41
845 977 903.1195678710938 65 74 89
860 977 909.7235717773438 54 59 81
1149 977 1076.975341796875 62 53 44
1191 977 1102.72802734375 68 60 49
1474 977 1292.2960205078125 65 57 70
1475 977 1293.14892578125 76 65 79
1476 977 1294.001953125 86 78 91
1480 977 1295.708740234375 87 75 89
1481 977 1296.5623779296875 96 84 98
1632 977 1384.8790283203125 169 182 198
1633 977 1385.750732421875 163 174 192
1760 977 1465.3780517578125 152 174 188
1761 977 1466.2633056640625 151 170 185
1766 977 1468.0340576171875 148 181 190
1767 977 1468.919677734375 147 180 189
1768 977 1469.805419921875 141 164 180
1769 977 1470.6912841796875 147 166 183
470 978 775.01806640625 75 64 58
507 978 786.2169189453125 63 61 49
602 978 818.0348510742188 60 58 45
616 978 823.2933959960938 63 61 48
696 978 826.1967163085938 129 43 46
697 978 826.7720336914062 119 33 36
1139 978 1072.9310302734375 65 56 47
1174 978 1093.881103515625 72 64 53
1183 978 1097.989501953125 74 64 55
1205 978 1110.467041015625 77 69 58
1220 978 1118.417236328125 79 71 60
1221 978 1119.2139892578125 85 77 66
1476 978 1294.5238037109375 61 57 71
1480 978 1296.2298583984375 66 60 74
1481 978 1297.083251953125 72 65 81
1482 978 1297.936767578125 74 67 83
1488 978 1300.498779296875 73 69 83
1489 978 1301.3531494140625 85 79 93
1494 978 1303.9176025390625 107 96 112
1495 978 1304.7728271484375 122 111 127
1649 978 1395.8370361328125 166 177 195
1650 978 1396.71044921875 164 172 191
1651 978 1397.583984375 160 166 188
1655 978 1399.3316650390625 160 168 189
600 979 817.690673828125 62 60 48
639 979 832.4019165039062 60 56 45
645 979 820.870849609375 81 43 40
677 979 823.9035034179688 119 30 34
690 979 825.2957153320312 125 29 33
693 979 827.01513671875 123 28 34
695 979 826.441162109375 131 42 46
697 979 827.5899047851562 126 37 41
844 979 903.2037353515625 61 69 88
854 979 908.529052734375 82 98 121
1136 979 1071.2315673828125 70 57 49
1145 979 1075.1148681640625 64 55 46
1149 979 1078.2281494140625 70 61 52
1186 979 1100.0081787109375 78 68 58
1221 979 1119.8182373046875 69 61 50
1222 979 1120.614990234375 72 66 54
1223 979 1121.412109375 83 77 65
1480 979 1296.751708984375 58 56 69
1482 979 1298.4578857421875 63 61 75
1491 979 1303.5816650390625 77 65 79
1507 979 1311.281005859375 143 146 163
1513 979 1314.7083740234375 162 168 182
1514 979 1315.565673828125 170 176 188
1662 979 1404.1883544921875 166 178 192
1663 979 1405.06298828125 168 182 193
1665 979 1406.812744140625 157 171 184
1670 979 1408.5631103515625 165 185 196
1788 979 1484.91748046875 151 173 187
1792 979 1485.80517578125 152 180 191
1793 979 1486.6929931640625 161 191 199
1794 979 1487.5809326171875 161 190 198
1795 979 1488.468994140625 152 181 189
471 980 777.2463989257812 65 56 47
498 980 783.1347045898438 61 57 45
600 980 818.506591796875 59 57 44
640 980 832.0096435546875 58 54 43
692 980 827.2605590820312 130 35 41
840 980 901.3068237304688 63 75 89
843 980 903.2901000976562 59 71 87
1138 980 1071.8629150390625 74 64 55
1147 980 1077.2989501953125 69 63 51
1148 980 1078.0770263671875 69 63 51
1161 980 1085.8775634765625 62 53 44
1173 980 1091.3592529296875 73 65 54
1201 980 1108.5184326171875 71 65 53
1216 980 1116.4466552734375 76 68 57
1281 980 1155.759521484375 86 82 70
1495 980 1305.81005859375 77 71 81
1507 980 1311.797607421875 114 112 136
1508 980 1312.65380859375 115 115 139
1509 980 1313.5101318359375 120 122 147
1513 980 1315.2235107421875 148 146 168
1515 980 1316.937744140625 147 142 162
1521 980 1319.510498046875 160 159 175
1664 980 1406.42236328125 170 182 198
1670 980 1409.046875 156 172 188
1671 980 1409.9219970703125 150 166 182
1792 980 1486.2657470703125 156 179 193
1793 980 1487.1533203125 150 173 187
1794 980 1488.041015625 147 169 183
1795 980 1488.9288330078125 147 166 181
1796 980 1489.8167724609375 144 162 182
470 981 778.287841796875 64 60 51
578 981 810.7557983398438 65 58 50
603 981 819.9005737304688 66 62 53
632 981 829.8445434570312 58 54 43
687 981 825.5452880859375 118 23 29
691 981 827.50830078125 123 28 34
1147 981 1077.9276123046875 72 66 54
1166 981 1088.8470458984375 64 57 49
1168 981 1088.0648193359375 62 53 48
1173 981 1091.9798583984375 67 59 48
1211 981 1113.0880126953125 74 66 55
1212 981 1113.880615234375 77 68 59
1215 981 1116.26025390625 77 67 58
1255 981 1138.61181640625 75 68 60
1508 981 1313.1705322265625 98 98 124
1509 981 1314.026611328125 105 106 136
1513 981 1315.7393798828125 119 119 143
1514 981 1316.595947265625 127 123 146
1515 981 1317.452880859375 117 112 135
1516 981 1318.3099365234375 120 114 140
1520 981 1319.1671142578125 138 136 158
1523 981 1321.7401123046875 146 143 162
1524 981 1322.59814453125 136 144 157
1688 981 1420.9169921875 169 193 203
1689 981 1421.7939453125 164 188 200
1793 981 1487.6142578125 152 174 188
1794 981 1488.5015869140625 152 169 187
1795 981 1489.38916015625 146 161 182
1811 981 1499.161376953125 143 161 181
1812 981 1500.0506591796875 154 176 190
1813 981 1500.9400634765625 153 177 189
1815 981 1502.71923828125 157 178 195
1820 981 1505.3890380859375 161 190 198
1821 981 1506.2791748046875 163 191 202
471 982 778.1008911132812 69 62 54
477 982 775.86083984375 71 66 47
584 982 811.8873291015625 61 54 44
632 982 828.8811645507812 57 55 43
693 982 829.4727172851562 127 36 41
841 982 901.96728515625 54 65 83
844 982 903.9524536132812 63 74 94
851 982 907.2733764648438 61 68 87
1145 982 1074.6766357421875 74 67 57
1147 982 1076.2276611328125 65 59 47
1148 982 1077.003662109375 67 61 49
1165 982 1086.3448486328125 66 59 49
1177 982 1094.1685791015625 71 64 56
1503 982 1311.9771728515625 83 76 94
1507 982 1312.8323974609375 81 83 104
1513 982 1316.255615234375 100 111 133
1514 982 1317.1119384765625 100 106 130
1515 982 1317.968505859375 102 106 131
1516 982 1318.8251953125 97 98 126
1520 982 1319.68212890625 110 111 139
1522 982 1321.3966064453125 105 105 131
1523 982 1322.254150390625 119 121 146
1524 982 1323.11181640625 115 120 142
1525 982 1323.9698486328125 111 118 137
1526 982 1324.827880859375 118 127 144
1530 982 1326.5447998046875 137 138 159
1531 982 1327.4034423828125 144 147 166
1532 982 1328.262451171875 141 144 163
1536 982 1329.9808349609375 165 175 187
1598 982 1367.2413330078125 174 188 197
1688 982 1421.39794921875 161 174 193
1690 982 1423.1514892578125 151 162 184
1811 982 1499.6192626953125 147 162 185
1812 982 1500.50830078125 151 166 187
1815 982 1503.176025390625 159 174 197
1816 982 1504.0654296875 143 158 181
1819 982 1504.9552001953125 143 166 180
1820 982 1505.844970703125 164 191 200
1821 982 1506.73486328125 153 182 190
1822 982 1507.625 156 179 193
1826 982 1509.405517578125 157 183 196
1827 982 1510.2960205078125 163 190 201
1828 982 1511.1866455078125 158 185 196
1829 982 1512.077392578125 151 178 189
1830 982 1512.96826171875 153 179 192
600 983 817.2661743164062 59 52 46
692 983 828.9004516601562 124 29 35
696 983 829.4727172851562 131 45 48
840 983 902.0582275390625 51 62 80
841 983 902.7181396484375 48 59 77
842 983 903.378662109375 63 74 92
843 983 904.039794921875 66 77 97
844 983 904.7015991210938 58 69 89
845 983 905.364013671875 69 80 100
850 983 907.3549194335938 59 66 85
852 983 908.685302734375 72 83 105
853 983 909.3514404296875 69 84 105
854 983 910.0181274414062 66 83 101
1174 983 1092.43994140625 66 59 49
1190 983 1101.0704345703125 70 61 52
1272 983 1150.2564697265625 86 79 69
1502 983 1311.6409912109375 58 56 67
1508 983 1314.205810546875 74 79 98
1509 983 1315.0611572265625 84 95 113
1513 983 1316.7725830078125 81 98 114
1514 983 1317.6285400390625 90 105 124
1515 983 1318.4847412109375 100 112 134
1516 983 1319.341064453125 78 89 111
1522 983 1321.9114990234375 93 100 126
1523 983 1322.7686767578125 93 99 125
1524 983 1323.6260986328125 96 102 126
1529 983 1326.199462890625 99 100 128
1530 983 1327.0576171875 110 112 137
1531 983 1327.916015625 112 117 139
1532 983 1328.774658203125 119 125 147
1533 983 1329.6334228515625 114 121 140
1537 983 1331.3515625 152 159 175
1545 983 1335.650390625 163 173 185
1826 983 1509.8609619140625 144 167 183
1827 983 1510.7510986328125 150 173 187
1828 983 1511.6414794921875 150 177 188
1829 983 1512.531982421875 139 166 177
1833 983 1513.422607421875 150 182 193
1834 983 1514.3133544921875 142 183 189
1835 983 1515.2042236328125 139 183 186
1836 983 1516.0953369140625 146 179 188
1837 983 1516.9864501953125 148 176 188
477 984 777.5783081054688 77 71 55
478 984 777.06689453125 68 60 47
587 984 813.5361328125 59 55 44
688 984 828.5801391601562 121 25 29
835 984 899.5226440429688 73 87 100
836 984 900.1788940429688 63 75 87
837 984 900.835693359375 60 70 82
838 984 901.4932250976562 54 63 78
839 984 902.1513061523438 56 65 82
840 984 902.81005859375 55 66 84
842 984 904.12939453125 55 68 87
843 984 904.7900390625 59 72 91
846 984 906.775634765625 66 77 97
850 984 908.1024169921875 63 74 92
852 984 909.4317016601562 73 84 104
853 984 910.0972290039062 71 84 103
995 984 993.3579711914062 56 51 45
1085 984 1041.7010498046875 68 61 51
1097 984 1034.1378173828125 60 51 44
1182 984 1097.7623291015625 68 61 53
1203 984 1107.98779296875 67 58 49
1515 984 1319.00146484375 90 112 125
1521 984 1321.5703125 83 101 121
1522 984 1322.4268798828125 82 97 116
1523 984 1323.2838134765625 71 86 105
1524 984 1324.140869140625 81 97 113
1525 984 1324.9981689453125 90 107 123
1526 984 1325.8555908203125 99 115 130
1531 984 1328.42919921875 91 105 131
1536 984 1331.0045166015625 119 127 150
1538 984 1332.722412109375 145 150 172
1711 984 1436.3983154296875 149 159 184
1712 984 1437.2769775390625 158 173 192
1833 984 1513.87744140625 151 174 190
1834 984 1514.7679443359375 149 177 189
1835 984 1515.6585693359375 150 180 191
1836 984 1516.54931640625 137 160 178
1837 984 1517.4403076171875 137 158 177
1854 984 1528.1417236328125 151 183 194
478 985 777.9267578125 73 65 54
676 985 827.7584228515625 117 28 32
697 985 831.68505859375 119 32 38
834 985 899.6226806640625 67 80 96
835 985 900.2777099609375 70 82 96
836 985 900.9334106445312 61 71 83
838 985 902.2466430664062 59 68 83
839 985 902.9041748046875 60 69 86
840 985 903.5623779296875 60 73 90
841 985 904.22119140625 60 73 90
842 985 904.8806762695312 60 76 92
843 985 905.5407104492188 60 73 90
846 985 907.524658203125 55 63 82
850 985 908.8504028320312 64 77 94
852 985 910.1785278320312 70 81 101
1090 985 1044.628662109375 60 53 43
1091 985 1045.387939453125 66 59 49
1099 985 1049.190673828125 66 59 51
1140 985 1072.7105712890625 64 55 46
1144 985 1075.8011474609375 69 60 51
1153 985 1081.223876953125 62 53 44
1159 985 1083.553466796875 65 57 46
1194 985 1103.878662109375 71 62 53
1199 985 1105.451904296875 79 73 61
1204 985 1109.3912353515625 66 57 48
1522 985 1322.94287109375 73 89 104
1523 985 1323.7994384765625 68 84 97
1525 985 1325.5130615234375 81 99 109
1530 985 1328.0850830078125 78 94 117
1531 985 1328.94287109375 82 102 126
1532 985 1329.80078125 79 101 122
1533 985 1330.6588134765625 85 108 126
1535 985 1330.6588134765625 95 110 129
1562 985 1347.0003662109375 158 172 181
1722 985 1444.7872314453125 151 173 187
1837 985 1517.8946533203125 139 157 181
1855 985 1529.4852294921875 152 184 195
1857 985 1531.2703857421875 145 168 186
478 986 778.786865234375 71 65 53
581 986 811.8158569335938 70 66 57
692 986 829.7210083007812 125 30 36
698 986 833.0774536132812 122 31 36
799 986 882.9524536132812 122 52 54
838 986 903.0005493164062 53 60 76
842 986 905.6323852539062 64 80 96
843 986 906.2918701171875 53 65 81
847 986 908.9362182617188 59 68 83
850 986 909.5988159179688 66 79 95
851 986 910.2620239257812 53 66 83
988 986 989.626708984375 57 53 44
1125 986 1062.83447265625 60 49 43
1137 986 1071.0340576171875 64 55 46
1138 986 1071.8045654296875 61 52 43
1174 986 1092.7479248046875 62 55 45
1191 986 1102.140625 75 67 56
1199 986 1106.0692138671875 61 54 44
1228 986 1124.0640869140625 72 62 53
1531 986 1329.45703125 62 88 101
1533 986 1331.17236328125 77 104 115
1534 986 1332.0303955078125 88 110 121
1632 986 1388.3245849609375 177 200 208
1857 986 1531.7213134765625 154 170 195
1863 986 1535.2921142578125 147 173 188
1864 986 1536.1851806640625 146 167 188
1865 986 1537.078369140625 150 168 190
1870 986 1539.7587890625 160 190 200
472 987 781.1843872070312 67 58 51
477 987 779.297119140625 77 71 57
478 987 778.786865234375 76 70 58
680 987 828.83349609375 113 27 30
696 987 831.1130981445312 128 37 42
835 987 901.789306640625 60 63 78
842 987 906.3845825195312 55 68 85
843 987 907.0435791015625 54 66 82
1095 987 1034.605224609375 64 55 46
1123 987 1061.941650390625 63 53 44
1185 987 1099.6258544921875 64 57 47
1192 987 1103.545166015625 69 60 51
1195 987 1103.545166015625 63 56 46
1201 987 1108.2598876953125 76 67 58
1214 987 1115.3551025390625 85 75 66
1533 987 1331.6865234375 61 84 92
1863 987 1535.742431640625 156 177 196
1864 987 1536.63525390625 146 164 186
1865 987 1537.5281982421875 144 162 186
1869 987 1539.314453125 153 183 193
1870 987 1540.207763671875 152 180 191
1871 987 1541.1011962890625 149 175 188
1872 987 1541.9947509765625 145 166 185
1879 987 1545.5704345703125 154 173 190
1880 987 1546.4647216796875 150 168 188
1881 987 1547.3590087890625 153 174 191
623 988 826.5313110351562 62 58 47
679 988 829.0892333984375 119 33 36
695 988 833.0774536132812 136 45 50
840 988 905.822265625 134 141 167
1021 988 1006.3419189453125 66 57 52
1122 988 1061.8182373046875 61 52 45
1126 988 1064.884033203125 67 58 51
1133 988 1069.2362060546875 59 50 43
1141 988 1072.575439453125 59 50 41
1184 988 1097.902099609375 63 56 46
1185 988 1098.6837158203125 68 61 51
1190 988 1100.2481689453125 72 64 53
1191 988 1101.0308837890625 76 68 57
1298 988 1166.1239013671875 87 83 74
1317 988 1177.4739990234375 81 74 68
1326 988 1183.1702880859375 68 59 54
1752 988 1463.8240966796875 168 185 201
1754 988 1465.5882568359375 167 187 198
1880 988 1546.912353515625 144 159 182
1881 988 1547.8065185546875 147 165 187
1882 988 1548.7008056640625 144 165 184
1883 988 1549.5950927734375 152 175 191
1884 988 1550.4896240234375 147 173 188
1889 988 1553.173828125 141 168 185
1890 988 1554.06884765625 151 181 192
1891 988 1554.9639892578125 151 181 191
1893 988 1556.754638671875 155 177 191
472 989 781.862548828125 69 60 53
604 989 819.3564453125 61 59 47
618 989 825.6221923828125 60 56 45
692 989 832.18505859375 125 28 35
846 989 909.7747192382812 62 65 80
1032 989 1013.6517944335938 66 55 51
1128 989 1064.7591552734375 66 59 49
1131 989 1067.0599365234375 65 54 48
1142 989 1071.6719970703125 62 53 44
1146 989 1074.75439453125 71 62 53
1164 989 1086.8509521484375 65 57 46
1173 989 1091.5113525390625 64 58 46
1176 989 1093.846435546875 75 69 57
