ply
format ascii 1.0
element vertex 1239
property float x
property float y
property float z
property float red
property float green
property float blue
end_header
1087 570 948.0516967773438 172 175 192
1091 570 948.9683837890625 175 178 195
1106 570 956.3079833984375 186 189 206
1123 570 965.4972534179688 196 202 216
1126 570 966.4171142578125 197 203 219
1130 570 967.3370361328125 200 206 220
1131 570 968.2572021484375 201 209 222
1261 570 1034.7327880859375 199 205 219
1262 570 1035.66455078125 196 202 216
1266 570 1036.5963134765625 192 195 210
1267 570 1037.5283203125 183 186 201
1279 570 1044.0555419921875 179 181 196
1280 570 1044.988525390625 182 183 201
1296 570 1053.3907470703125 186 189 206
1297 570 1054.324951171875 189 192 209
1307 570 1058.9976806640625 187 190 205
1308 570 1059.9324951171875 185 188 203
1326 570 1070.2242431640625 196 197 215
1332 570 1073.97021484375 196 198 213
1337 570 1075.8438720703125 206 207 225
1338 570 1076.7808837890625 197 198 216
1357 570 1088.0335693359375 206 214 227
1735 570 1327.2000732421875 176 187 209
1736 570 1328.1600341796875 177 192 211
1737 570 1329.1199951171875 170 185 204
1741 570 1331.0401611328125 172 183 205
1742 570 1332.0003662109375 179 191 213
1743 570 1332.9605712890625 173 188 209
1744 570 1333.9208984375 168 183 204
1751 570 1337.7626953125 167 179 203
1854 570 1409.9588623046875 192 220 232
1855 570 1410.9234619140625 183 209 224
1882 570 1429.0 172 200 214
713 571 809.4998168945312 93 91 92
715 571 811.2570190429688 126 123 116
1057 571 933.814208984375 178 181 198
1063 571 937.469482421875 177 183 197
1082 571 945.7039794921875 172 175 192
1083 571 946.6197509765625 174 177 194
1087 571 948.451904296875 188 191 208
1091 571 949.3682250976562 188 191 208
1106 571 956.7047729492188 197 203 219
1107 571 957.62255859375 198 204 220
1239 571 1023.00048828125 201 209 220
1251 571 1029.5111083984375 188 191 206
1252 571 1030.441650390625 182 188 202
1266 571 1036.95947265625 181 184 199
1267 571 1037.89111328125 171 173 188
1297 571 1054.681884765625 195 198 215
1307 571 1059.3531494140625 194 197 212
1326 571 1070.5760498046875 199 202 219
1327 571 1071.511962890625 204 207 222
1328 571 1072.4481201171875 201 202 220
1332 571 1074.3206787109375 208 211 226
1337 571 1076.1937255859375 206 209 224
1695 571 1300.632568359375 173 189 205
1696 571 1301.590576171875 173 189 205
1697 571 1302.5487060546875 183 199 215
1698 571 1303.5068359375 168 184 200
1703 571 1306.381591796875 182 198 214
1704 571 1307.340087890625 172 188 204
1709 571 1309.257080078125 177 193 208
1710 571 1310.215576171875 168 185 201
1711 571 1311.17431640625 172 185 204
1712 571 1312.133056640625 170 176 200
1735 571 1327.480712890625 174 180 204
1736 571 1328.4404296875 172 183 205
1737 571 1329.4002685546875 170 181 203
1743 571 1333.239990234375 168 183 206
1750 571 1337.080810546875 168 183 206
1030 572 923.27783203125 177 180 199
1033 572 923.27783203125 183 189 205
1047 572 929.6585693359375 174 175 195
1048 572 930.57080078125 172 174 189
1056 572 933.3086547851562 178 179 197
1057 572 934.2216186523438 174 175 193
1082 572 946.106201171875 200 207 223
1083 572 947.0216674804688 198 206 219
1087 572 948.8529663085938 198 206 219
1212 572 1009.4453735351562 208 216 229
1222 572 1014.0833129882812 193 196 213
1223 572 1015.0113525390625 185 188 205
1251 572 1029.877685546875 188 187 205
1257 572 1033.5994873046875 191 193 208
1261 572 1035.4613037109375 194 193 211
1262 572 1036.392333984375 191 192 210
1266 572 1037.323486328125 195 198 213
1267 572 1038.2547607421875 192 195 210
1297 572 1055.039794921875 202 212 224
1298 572 1055.9735107421875 199 209 221
1303 572 1058.7752685546875 200 208 219
1671 572 1284.6466064453125 184 189 211
1672 572 1285.6033935546875 178 183 205
1695 572 1300.919677734375 175 183 206
1703 572 1306.66748046875 167 175 198
1812 572 1381.314208984375 183 209 226
1010 573 913.68701171875 178 185 201
1011 573 914.5955200195312 175 183 196
1025 573 920.9603881835938 172 175 192
1048 573 930.9806518554688 183 184 202
1067 573 939.1953735351562 202 205 222
1194 573 999.6329345703125 200 210 222
1212 573 1009.8202514648438 182 190 203
1217 573 1012.6016235351562 184 190 204
1222 573 1014.4564819335938 179 182 199
1223 573 1015.3841552734375 177 180 197
1239 573 1023.7391967773438 184 185 203
1252 573 1031.175048828125 194 195 213
1257 573 1033.9656982421875 194 197 214
1640 573 1264.8671875 173 189 204
1646 573 1268.6878662109375 173 185 197
1655 573 1274.4210205078125 172 172 196
988 574 905.0353393554688 186 189 208
1001 574 910.4751586914062 175 178 197
1010 574 914.1055908203125 175 178 195
1033 574 924.10498046875 185 192 208
1034 574 925.01513671875 185 192 208
1184 574 995.3893432617188 191 194 211
1185 574 996.313720703125 191 196 215
1190 574 999.0875854492188 190 193 212
1194 574 1000.0125122070312 188 194 210
1195 574 1000.9375610351562 182 188 204
1212 574 1010.196044921875 180 183 200
1217 574 1012.976318359375 181 182 200
1251 574 1030.6134033203125 199 202 217
1252 574 1031.54296875 204 210 224
1602 574 1240.36279296875 190 199 214
1603 574 1241.3157958984375 185 194 209
1608 574 1244.1751708984375 192 199 217
1616 574 1248.9423828125 183 188 208
1647 574 1269.93896484375 167 167 191
967 575 897.3165283203125 184 193 208
978 575 900.9334106445312 177 180 197
1001 575 910.896240234375 175 180 199
1010 575 914.5250244140625 191 194 211
1024 575 920.8827514648438 195 200 219
1029 575 923.6102905273438 201 208 226
1032 575 923.6102905273438 202 209 225
1033 575 924.5198974609375 204 211 227
1151 575 979.1654663085938 204 211 227
1152 575 980.0867309570312 200 207 223
1156 575 981.0081787109375 201 208 224
1157 575 981.9297485351562 189 196 212
1168 575 987.46240234375 181 188 204
1169 575 988.3850708007812 176 183 199
1184 575 995.7715454101562 180 181 201
1185 575 996.695556640625 179 182 201
1186 575 997.6196899414062 175 178 197
1190 575 999.4683837890625 180 181 201
1194 575 1000.3929443359375 189 195 211
1603 575 1241.619140625 177 180 199
1616 575 1249.2437744140625 179 177 199
713 576 810.4578857421875 82 82 80
716 576 813.0910034179688 130 130 120
944 576 887.8203735351562 184 191 207
957 576 893.2306518554688 174 179 198
989 576 906.788818359375 184 187 204
1130 576 968.5164184570312 197 203 219
1142 576 974.9528198242188 182 185 204
1144 576 976.793212890625 183 186 205
1148 576 978.63427734375 178 184 200
1152 576 980.4758911132812 173 174 194
1169 576 988.7709350585938 183 186 205
1185 576 997.0782470703125 187 190 209
1186 576 998.0020141601562 189 195 211
1190 576 999.8499755859375 191 197 213
1212 576 1010.9500732421875 200 208 221
1213 576 1011.8759765625 200 210 222
1548 576 1205.781494140625 202 208 222
1561 576 1213.380859375 185 184 202
1562 576 1214.3310546875 179 176 197
1578 576 1224.7894287109375 179 182 201
1579 576 1225.7406005859375 179 182 201
1595 576 1236.2091064453125 192 194 215
1596 576 1237.1612548828125 186 189 208
1602 576 1240.9705810546875 182 178 201
1603 576 1241.923095703125 185 183 205
1698 576 1304.656982421875 197 215 229
1699 576 1305.6143798828125 186 202 218
1911 576 1451.2852783203125 166 192 209
1916 576 1454.18359375 153 179 196
1917 576 1455.1497802734375 164 190 205
1918 576 1456.1160888671875 159 187 199
1919 576 1457.0823974609375 159 187 198
714 577 811.8152465820312 100 96 93
716 577 813.5698852539062 119 119 109
717 577 814.4476928710938 130 133 124
936 577 885.5535278320312 182 188 204
944 577 888.2544555664062 174 181 197
957 577 893.662109375 175 180 199
967 577 898.1742553710938 191 196 215
1118 577 964.3204956054688 187 195 208
1122 577 966.1563110351562 182 191 206
1127 577 968.9112548828125 181 188 204
1130 577 968.9112548828125 175 181 197
1131 577 969.8298950195312 178 184 200
1143 577 976.2648315429688 182 183 203
1144 577 977.1847534179688 186 187 207
1152 577 980.865966796875 178 176 197
1526 577 1191.864501953125 173 179 193
1542 577 1202.298583984375 185 186 206
1549 577 1207.044677734375 181 184 199
1561 577 1213.6927490234375 184 176 199
1672 577 1286.772705078125 193 216 224
1875 577 1426.4473876953125 171 194 212
1880 577 1428.376708984375 175 193 213
1884 577 1432.2359619140625 156 179 197
1908 577 1448.6466064453125 161 182 203
1911 577 1451.5439453125 159 180 201
1912 577 1452.5098876953125 158 176 200
1917 577 1455.4078369140625 160 181 200
1918 577 1456.3739013671875 162 185 201
1919 577 1457.340087890625 154 177 193
713 578 811.4197387695312 81 81 79
716 578 814.0497436523438 128 128 118
717 578 814.927001953125 140 141 133
914 578 877.005126953125 168 174 190
915 578 877.902587890625 168 175 191
923 578 880.5963745117188 168 174 190
936 578 885.9898681640625 176 183 201
1082 578 947.3182983398438 200 208 221
1083 578 948.2325439453125 202 208 222
1087 578 950.0615844726562 196 204 217
1090 578 950.0615844726562 199 205 219
1091 578 950.976318359375 198 204 218
1092 578 951.8912963867188 187 193 209
1106 578 958.3005981445312 185 188 205
1107 578 959.2168579101562 178 181 198
1118 578 964.7180786132812 182 185 202
1123 578 967.470947265625 179 182 201
1131 578 970.2252197265625 183 186 205
1143 578 976.6575927734375 184 187 206
1148 578 979.4166870117188 195 202 218
1169 578 989.5453491210938 203 212 227
1491 578 1170.405517578125 194 197 214
1496 578 1173.243408203125 189 188 206
1519 578 1188.3922119140625 186 183 202
1635 578 1263.19677734375 200 214 227
1641 578 1267.0130615234375 198 212 225
1645 578 1268.921630859375 205 217 231
1646 578 1269.8759765625 195 209 222
1647 578 1270.8304443359375 184 197 213
1847 578 1406.4686279296875 176 193 213
1853 578 1410.3226318359375 178 199 216
1854 578 1411.2862548828125 175 196 215
1864 578 1418.033203125 156 170 197
1865 578 1418.9971923828125 176 190 216
1866 578 1419.9613037109375 167 183 206
1867 578 1420.9254150390625 168 186 206
1872 578 1423.818115234375 166 184 208
1873 578 1424.782470703125 167 185 209
1875 578 1426.7113037109375 161 179 201
1880 578 1428.6402587890625 178 185 213
1882 578 1430.5694580078125 159 169 196
1883 578 1431.5341796875 159 173 199
713 579 811.902099609375 88 88 86
714 579 812.7779541015625 112 107 104
883 579 866.7000732421875 184 191 207
893 579 869.3836669921875 168 173 192
914 579 877.4468383789062 169 175 191
915 579 878.3438720703125 176 183 199
1063 579 939.50732421875 196 204 217
1067 579 940.4196166992188 193 201 214
1068 579 941.33203125 186 194 207
1082 579 947.72412109375 176 182 196
1083 579 948.6380004882812 174 180 194
1087 579 950.4661865234375 175 181 195
1106 579 958.7017211914062 182 185 202
1131 579 970.6214599609375 195 198 217
1463 579 1153.7252197265625 186 194 207
1468 579 1155.61328125 186 192 206
1469 579 1156.557373046875 185 191 205
1470 579 1157.5015869140625 177 180 195
1597 579 1238.7255859375 201 215 228
1603 579 1242.5333251953125 203 215 227
1817 579 1384.5966796875 169 198 214
1818 579 1385.5587158203125 168 200 213
1819 579 1386.5208740234375 159 188 204
1837 579 1399.0328369140625 167 183 206
1838 579 1399.9957275390625 173 191 213
1839 579 1400.9586181640625 166 184 206
1840 579 1401.9215087890625 163 181 205
1847 579 1406.737060546875 163 177 203
1848 579 1407.7001953125 173 184 212
1861 579 1415.4080810546875 161 181 205
1873 579 1425.04736328125 163 181 205
1875 579 1426.975830078125 157 175 199
1911 579 1452.0633544921875 164 182 206
1033 580 925.3523559570312 204 207 224
1034 580 926.2612915039062 193 196 213
1047 580 931.7188720703125 191 194 211
1048 580 932.6290893554688 193 195 210
1057 580 936.2718505859375 173 174 192
1058 580 937.1829833984375 174 175 193
1067 580 940.8294067382812 174 177 194
1068 580 941.741455078125 178 181 198
1082 580 948.1307983398438 180 183 200
1083 580 949.0442504882812 182 183 201
1436 580 1137.086181640625 188 187 205
1457 580 1150.2821044921875 183 180 199
1458 580 1151.2254638671875 181 178 197
1578 580 1225.718505859375 198 210 222
1777 580 1357.9605712890625 179 200 217
1779 580 1359.8812255859375 179 197 217
1795 580 1370.4488525390625 170 186 211
1796 580 1371.409912109375 169 187 209
1797 580 1372.3709716796875 171 189 211
1798 580 1373.33203125 168 186 206
1803 580 1376.2158203125 174 192 214
1804 580 1377.17724609375 170 191 212
1810 580 1381.023193359375 164 184 208
1811 580 1381.98486328125 161 183 204
1812 580 1382.946533203125 156 178 201
1813 580 1383.908203125 156 176 200
1818 580 1385.8319091796875 167 192 212
1819 580 1386.7938232421875 154 174 198
1847 580 1407.0059814453125 162 176 203
1025 581 923.0455322265625 188 195 211
1026 581 923.9534912109375 189 197 210
1029 581 924.8616333007812 183 190 206
1033 581 925.7699584960938 183 186 203
1034 581 926.678466796875 178 184 200
1048 581 933.0433959960938 177 178 196
1058 581 937.5953369140625 178 179 197
1087 581 951.278076171875 199 202 219
1415 581 1125.190185546875 188 190 205
1421 581 1128.011474609375 175 174 192
1763 581 1349.601806640625 174 191 207
1769 581 1353.4404296875 177 189 213
1777 581 1358.239990234375 169 186 206
1778 581 1359.2000732421875 164 180 203
1819 581 1387.0673828125 163 183 208
835 582 851.1268920898438 168 175 194
862 582 860.021484375 176 183 201
989 582 908.066650390625 197 200 217
997 582 911.6846923828125 189 195 211
1001 582 912.5897216796875 183 186 203
1011 582 917.1177978515625 174 175 193
1025 582 923.4652099609375 177 180 199
1029 582 925.280517578125 177 182 201
1067 582 941.6517333984375 197 205 218
1382 582 1105.814208984375 187 188 206
1421 582 1128.3514404296875 183 180 201
1503 582 1178.0003662109375 209 219 229
1712 582 1314.4295654296875 180 193 212
1737 582 1331.6669921875 173 184 204
1742 582 1334.5418701171875 172 182 207
1743 582 1335.500244140625 169 181 203
1744 582 1336.458740234375 169 181 203
1750 582 1339.3345947265625 170 187 207
1752 582 1341.2520751953125 170 180 205
1753 582 1342.2108154296875 175 185 210
815 583 844.4927368164062 163 170 186
834 583 850.6990966796875 167 174 193
967 583 899.4675903320312 196 205 220
968 583 900.369384765625 193 202 217
971 583 901.2713012695312 189 196 212
975 583 903.0758666992188 192 201 216
978 583 903.0758666992188 192 199 215
988 583 907.5907592773438 180 183 200
989 583 908.494384765625 181 182 200
1011 583 917.541259765625 180 181 199
1371 583 1099.6021728515625 186 183 202
1673 583 1288.908447265625 191 207 220
1695 583 1303.2420654296875 185 196 214
1696 583 1304.1982421875 179 192 208
1697 583 1305.1544189453125 166 182 197
1698 583 1306.110595703125 168 184 200
1699 583 1307.06689453125 164 179 198
1703 583 1308.979736328125 179 191 205
1704 583 1309.936279296875 171 185 198
1710 583 1312.80615234375 173 186 203
1711 583 1313.762939453125 172 185 202
1712 583 1314.7197265625 174 182 205
1737 583 1331.9534912109375 177 183 207
715 584 815.1036987304688 112 109 102
957 584 895.3970947265625 192 197 216
968 584 900.8018798828125 181 186 205
971 584 901.703369140625 174 179 198
978 584 903.507080078125 170 173 192
1026 584 925.2140502929688 200 207 223
1327 584 1074.7115478515625 191 192 210
1332 584 1077.511962890625 187 186 204
1333 584 1078.4456787109375 184 183 201
1671 584 1287.295654296875 182 187 207
1672 584 1288.2503662109375 185 192 211
1673 584 1289.2052001953125 170 175 195
1697 584 1305.4473876953125 172 183 205
1698 584 1306.4034423828125 162 172 197
923 585 882.3616333007812 190 198 211
936 585 887.7443237304688 186 193 209
940 585 889.5403442382812 184 191 207
944 585 890.4386596679688 178 185 201
978 585 903.9391479492188 186 189 208
989 585 909.3525390625 191 194 213
1290 585 1054.57568359375 189 190 208
1303 585 1062.0216064453125 183 184 202
1308 585 1063.8843994140625 186 187 205
1410 585 1123.3970947265625 203 209 223
1415 585 1126.21484375 205 215 225
1633 585 1262.8004150390625 182 191 208
1634 585 1263.753173828125 178 186 205
1646 585 1271.377197265625 174 181 199
1647 585 1272.33056640625 179 184 203
1648 585 1273.283935546875 180 180 204
1653 585 1275.19091796875 176 183 202
1698 585 1306.697021484375 177 187 212
1699 585 1307.65283203125 173 183 210
1738 585 1333.486083984375 192 203 225
903 586 875.6443481445312 189 195 209
915 586 880.1181640625 182 188 204
916 586 881.0136108398438 177 183 199
923 586 882.80517578125 178 184 200
978 586 904.3721313476562 195 202 218
1298 586 1059.59423828125 196 199 216
1594 586 1237.4171142578125 190 192 213
1596 586 1239.3179931640625 187 192 211
1597 586 1240.2685546875 188 193 213
1602 586 1243.1207275390625 184 186 207
1603 586 1244.071533203125 185 187 208
1604 586 1245.0224609375 182 184 205
1609 586 1247.8758544921875 181 186 206
1610 586 1248.8270263671875 179 184 204
1615 586 1250.729736328125 179 184 204
1633 586 1263.1048583984375 182 182 206
1634 586 1264.057373046875 177 177 201
1635 586 1265.0098876953125 173 173 197
1641 586 1268.8206787109375 174 176 199
1711 586 1314.6383056640625 193 210 226
883 587 868.949951171875 184 191 207
903 587 876.0924682617188 169 175 189
915 587 880.5640258789062 169 175 191
923 587 883.2496948242188 170 176 192
1252 587 1034.8922119140625 186 187 205
1562 587 1216.8450927734375 185 191 203
1578 587 1227.281982421875 186 189 208
1580 587 1229.1806640625 179 177 198
713 588 814.3279418945312 78 76 79
715 588 816.0747680664062 112 107 101
716 588 816.9486083984375 129 125 116
717 588 817.8226928710938 131 131 123
724 588 819.5718383789062 141 148 156
862 588 861.3895874023438 182 187 206
874 588 865.8389282226562 173 180 198
915 588 881.0108032226562 181 190 205
1525 588 1193.4864501953125 190 193 208
1526 588 1194.4324951171875 191 193 208
1527 588 1195.378662109375 191 190 208
1543 588 1205.7913818359375 189 186 205
1544 588 1206.738525390625 182 179 198
1549 588 1209.58056640625 182 179 200
1563 588 1218.11083984375 178 173 195
1580 588 1229.4949951171875 184 179 202
1647 588 1273.2391357421875 201 214 230
716 589 817.4349975585938 116 112 103
862 589 861.847412109375 166 171 190
1185 589 1000.5608520507812 175 182 200
1191 589 1004.2440185546875 174 181 197
1195 589 1005.1651611328125 172 178 194
1504 589 1180.5799560546875 174 176 191
1514 589 1188.138427734375 184 185 203
1525 589 1193.8111572265625 185 184 202
1526 589 1194.7568359375 176 173 192
1527 589 1195.7027587890625 175 170 192
1580 589 1229.8101806640625 190 188 210
815 590 846.3568725585938 176 184 197
823 590 849.0093994140625 171 178 196
835 590 853.4354248046875 162 169 188
1148 590 982.580810546875 189 188 206
1191 590 1004.6337890625 180 185 204
1464 590 1157.3336181640625 184 183 199
1469 590 1159.2174072265625 187 184 203
1470 590 1160.159423828125 176 173 192
1491 590 1173.3583984375 185 180 200
1497 590 1177.1329345703125 185 182 203
1505 590 1181.8531494140625 185 177 200
796 591 840.6485595703125 172 179 195
805 591 844.176513671875 171 178 194
815 591 846.8252563476562 156 163 179
1128 591 973.8223876953125 181 187 203
1410 591 1124.7777099609375 191 197 211
1436 591 1139.7987060546875 180 182 197
1457 591 1152.963623046875 189 186 207
1458 591 1153.9046630859375 181 180 198
1463 591 1156.728515625 183 180 199
1464 591 1157.6700439453125 183 178 198
714 592 816.6663818359375 104 95 96
715 592 817.5383911132812 114 106 103
786 592 838.4795532226562 166 174 185
1383 592 1109.2001953125 194 197 212
1404 592 1121.375 187 186 204
1409 592 1124.187255859375 188 185 204
1415 592 1127.9383544921875 183 180 199
1422 592 1131.691162109375 175 170 190
1492 592 1174.9659423828125 194 197 214
742 593 825.79052734375 151 158 166
767 593 832.8037109375 161 167 179
1372 593 1103.0072021484375 177 178 196
1373 593 1103.9420166015625 185 186 204
1404 593 1121.72412109375 194 191 212
742 594 826.274169921875 150 157 167
1048 594 936.8121337890625 181 184 199
1119 594 970.469970703125 206 216 228
1123 594 972.2962646484375 202 211 226
1153 594 986.52978515625 199 205 221
1328 594 1078.1767578125 187 186 204
1332 594 1080.039306640625 189 188 206
1372 594 1103.363037109375 193 191 212
1373 594 1104.2974853515625 198 196 217
1917 594 1458.8204345703125 173 205 218
714 595 817.1566772460938 88 82 82
716 595 818.8998413085938 131 128 121
717 595 819.7719116210938 135 136 130
724 595 821.5169067382812 135 144 151
1025 595 927.2825927734375 183 186 203
1026 595 928.1864013671875 179 185 201
1298 595 1061.8060302734375 183 185 200
1303 595 1064.5924072265625 190 189 207
1309 595 1067.3800048828125 188 190 205
1359 595 1096.25048828125 198 197 215
1388 595 1112.13134765625 204 207 224
1884 595 1435.9749755859375 179 205 220
1909 595 1453.3065185546875 169 190 211
1913 595 1457.1602783203125 165 191 208
1918 595 1460.051025390625 164 187 203
1919 595 1461.0147705078125 165 188 204
714 596 817.6478271484375 90 84 84
715 596 818.518798828125 112 104 101
716 596 819.3900146484375 128 124 115
717 596 820.2615356445312 119 119 111
990 596 913.2841796875 184 187 206
1088 596 956.2996215820312 195 201 215
1258 596 1040.8621826171875 180 179 197
1262 596 1042.7127685546875 182 183 201
1263 596 1043.6383056640625 179 180 198
1267 596 1044.56396484375 184 183 199
1268 596 1045.4898681640625 175 174 192
1840 596 1405.482421875 188 211 227
1855 596 1416.051513671875 177 205 217
1867 596 1424.703857421875 180 206 221
1868 596 1425.6654052734375 170 196 211
1873 596 1428.5506591796875 167 192 212
1874 596 1429.512451171875 168 193 213
1875 596 1430.474365234375 172 194 215
1876 596 1431.4364013671875 164 186 207
1881 596 1433.3603515625 168 194 211
1882 596 1434.322509765625 172 200 214
714 597 818.1399536132812 88 84 83
958 597 900.2499389648438 184 190 206
968 597 904.7347412109375 179 185 201
978 597 907.42822265625 180 186 202
979 597 908.3264770507812 181 184 201
1212 597 1016.32275390625 184 194 206
1799 597 1377.93505859375 185 213 227
1805 597 1381.770263671875 186 212 227
1806 597 1382.7291259765625 177 205 219
1811 597 1385.6063232421875 183 206 224
1812 597 1386.5655517578125 185 211 226
1820 597 1391.3623046875 175 201 218
1840 597 1405.760986328125 167 188 207
1841 597 1406.7213134765625 168 189 208
1854 597 1415.3670654296875 177 200 216
1855 597 1416.3280029296875 173 196 212
714 598 818.6329956054688 97 93 92
937 598 892.6387939453125 190 195 214
1002 598 918.6560668945312 186 195 210
1239 598 1030.5386962890625 192 193 213
1778 598 1362.8917236328125 194 213 227
1779 598 1363.849365234375 182 201 215
1797 598 1376.302978515625 190 209 226
1798 598 1377.2613525390625 183 204 221
1800 598 1379.1783447265625 170 188 210
1806 598 1383.0130615234375 167 185 209
1813 598 1387.8076171875 174 192 214
1814 598 1388.7667236328125 171 187 212
1818 598 1389.725830078125 168 189 210
1819 598 1390.68505859375 177 198 219
1820 598 1391.6444091796875 166 182 207
714 599 818.6329956054688 101 97 96
903 599 879.710205078125 191 198 214
915 599 884.1634521484375 173 179 195
958 599 901.13818359375 185 188 207
1239 599 1030.92431640625 203 206 223
1240 599 1031.846923828125 204 207 224
1744 599 1340.2227783203125 181 205 217
1745 599 1341.1785888671875 176 200 212
1751 599 1344.0465087890625 185 209 221
1752 599 1345.0025634765625 175 199 211
1771 599 1359.3516845703125 181 200 215
1778 599 1363.180419921875 179 195 211
1779 599 1364.1378173828125 175 191 207
715 600 819.996337890625 112 107 103
874 600 869.5084838867188 180 187 205
884 600 873.945068359375 178 184 200
887 600 874.8331298828125 177 182 201
894 600 876.6099243164062 170 175 194
979 600 909.206787109375 198 201 218
1131 600 976.2592163085938 185 188 207
1132 600 977.1719360351562 188 191 208
1169 600 995.4622192382812 188 189 209
1697 600 1309.018310546875 198 214 230
1698 600 1309.9718017578125 198 211 228
1699 600 1310.92529296875 188 201 218
1704 600 1313.7861328125 193 211 225
1705 600 1314.7398681640625 189 208 222
1711 600 1317.6015625 191 209 223
1712 600 1318.5556640625 186 205 220
1713 600 1319.509765625 177 194 212
713 601 818.7532958984375 72 70 73
863 601 866.4282836914062 174 181 199
1633 601 1266.5010986328125 203 219 234
1634 601 1267.450927734375 209 225 240
1647 601 1276.0035400390625 204 217 233
1655 601 1280.757568359375 191 205 218
1672 601 1292.1749267578125 188 202 215
1673 601 1293.1268310546875 181 195 208
1674 601 1294.078857421875 182 195 211
835 602 857.1767578125 178 185 203
836 602 858.058837890625 176 183 202
843 602 859.8237915039062 171 176 196
1084 602 956.151123046875 178 181 198
1087 602 957.0590209960938 184 185 203
1088 602 957.9671020507812 174 175 193
1091 602 957.9671020507812 186 187 205
1598 602 1244.9935302734375 204 221 231
1610 602 1252.5784912109375 202 216 229
1616 602 1255.4241943359375 199 217 229
1617 602 1256.3729248046875 198 214 227
714 603 820.11767578125 91 87 88
805 603 847.9681396484375 172 179 195
1048 603 939.3641357421875 178 185 201
1049 603 940.26806640625 178 186 199
1123 603 974.75537109375 204 210 226
1127 603 976.5776977539062 203 206 225
1545 603 1211.2554931640625 210 222 234
1557 603 1218.814208984375 197 209 221
1560 603 1218.814208984375 204 216 228
1561 603 1219.7593994140625 204 216 228
1562 603 1220.7047119140625 202 214 226
1581 603 1233.9481201171875 189 201 213
1596 603 1243.4178466796875 180 194 207
1597 603 1244.3653564453125 186 200 213
1598 603 1245.3128662109375 180 192 206
1011 604 923.563720703125 182 187 206
1012 604 924.463623046875 180 183 202
1025 604 929.8671875 183 186 203
1026 604 930.7684936523438 181 184 201
1527 604 1199.3172607421875 202 210 223
1544 604 1210.640380859375 195 203 214
1545 604 1211.58447265625 194 200 214
1551 604 1215.362060546875 191 194 211
1561 604 1220.0860595703125 196 199 216
1562 604 1221.0311279296875 194 197 214
767 605 836.666015625 153 159 171
989 605 915.0174560546875 184 190 206
990 605 915.9148559570312 177 182 201
1002 605 920.40478515625 174 175 195
1515 605 1193.05322265625 190 196 208
742 606 830.176513671875 156 165 174
945 606 897.5667114257812 184 190 206
958 606 902.9252319335938 178 181 198
968 606 907.3968505859375 172 175 194
972 606 909.18701171875 173 174 194
1002 606 920.8441772460938 175 176 196
1422 606 1135.18505859375 205 213 224
1437 606 1144.5457763671875 199 209 219
1458 606 1157.6688232421875 195 198 213
1464 606 1161.4219970703125 198 199 217
1465 606 1162.3604736328125 186 187 205
715 607 821.9793090820312 106 101 98
716 607 822.8468627929688 115 110 106
717 607 823.7147827148438 135 132 127
920 607 889.1102294921875 184 191 207
937 607 895.343505859375 174 179 198
944 607 897.1265258789062 175 178 195
945 607 898.0183715820312 171 177 193
1379 607 1111.260498046875 207 217 229
1384 607 1114.057861328125 199 209 221
1385 607 1114.9906005859375 194 204 216
1389 607 1115.92333984375 202 210 221
1410 607 1128.99462890625 196 204 215
714 608 821.610595703125 89 85 86
715 608 822.4773559570312 103 97 97
716 608 823.3444213867188 120 115 109
894 608 878.9141235351562 185 190 209
1339 608 1087.4322509765625 201 209 222
1358 608 1098.5867919921875 197 204 220
1359 608 1099.5172119140625 189 195 211
1919 608 1463.7158203125 159 196 205
714 609 822.110107421875 84 80 81
1869 609 1429.4002685546875 166 193 210
1883 609 1438.041015625 158 186 200
716 610 823.8428344726562 118 113 107
843 610 862.1844482421875 175 182 201
1239 610 1033.64697265625 209 214 233
1240 610 1034.5670166015625 204 211 227
1253 610 1041.933349609375 203 209 223
1254 610 1042.854736328125 191 197 213
1258 610 1044.697998046875 196 199 216
1267 610 1048.3863525390625 195 196 214
1841 610 1409.5406494140625 165 186 207
1849 610 1415.2926025390625 169 186 206
815 611 852.9970703125 163 170 186
816 611 853.8740844726562 164 170 186
835 611 860.0209350585938 170 177 195
1213 611 1021.17822265625 203 210 226
1214 611 1022.0958862304688 201 207 223
1218 611 1023.931640625 201 207 221
1799 611 1381.1046142578125 177 192 211
1805 611 1384.9310302734375 174 191 211
1806 611 1385.8878173828125 170 188 208
1807 611 1386.8446044921875 166 182 205
1191 612 1010.5809936523438 198 204 220
1195 612 1011.4963989257812 192 198 212
1213 612 1021.5762329101562 185 186 206
1751 612 1347.0118408203125 177 194 212
1128 613 979.971923828125 204 211 227
1145 613 988.1619262695312 199 207 220
1149 613 989.9838256835938 198 205 221
742 614 832.6452026367188 145 152 160
1132 614 981.297607421875 186 189 206
715 615 824.4786376953125 106 102 101
716 615 825.3435668945312 107 102 98
717 615 826.2088012695312 122 119 114
718 615 827.0743408203125 127 127 127
1108 615 970.8244018554688 180 187 203
714 616 824.1171264648438 82 78 79
715 616 824.981201171875 96 91 88
716 616 825.8456420898438 117 109 106
1030 616 936.056640625 195 201 217
1049 616 944.1509399414062 196 199 216
714 618 825.1260375976562 90 88 89
972 618 912.7787475585938 198 204 220
976 618 914.562744140625 188 194 210
979 618 914.562744140625 187 192 211
980 618 915.455078125 189 195 211
990 618 919.9201049804688 188 193 212
937 619 898.9994506835938 190 199 216
941 619 900.7752075195312 190 197 213
945 619 901.6634521484375 183 190 208
958 619 906.997802734375 181 188 206
904 620 887.0631103515625 182 187 206
916 620 891.4852905273438 183 188 207
715 625 827.5076904296875 105 101 98
716 626 828.876953125 112 107 103
1868 626 1432.1441650390625 177 203 220
715 627 828.5245971679688 99 95 92
1801 627 1386.5618896484375 188 217 233
1815 627 1396.106689453125 194 215 234
1754 628 1353.513916015625 192 213 230
1755 628 1354.465576171875 187 206 223
714 629 828.1744995117188 78 76 77
1619 630 1265.0533447265625 207 221 232
1546 631 1219.25634765625 204 214 226
1465 632 1169.05126953125 212 220 231
1466 632 1169.984619140625 204 212 223
1472 632 1172.78515625 200 208 219
715 635 831.0823974609375 90 89 87
715 637 831.5966796875 93 92 90
1781 640 1375.3140869140625 189 215 230
1802 640 1390.539794921875 187 213 230
1821 640 1401.970458984375 187 209 223
1822 640 1402.92333984375 185 206 223
1823 640 1403.87646484375 185 208 226
1843 640 1418.1798095703125 176 204 218
1714 641 1330.066162109375 190 212 226
1747 641 1352.82373046875 190 212 226
1748 641 1353.7728271484375 183 205 219
1754 641 1356.620849609375 182 204 218
717 642 834.341064453125 121 114 108
1638 642 1281.2467041015625 196 208 224
1644 642 1285.0186767578125 191 207 222
1658 642 1293.5107421875 192 208 221
715 643 833.1446533203125 87 83 80
717 643 834.8568725585938 123 116 110
1500 643 1193.39013671875 206 214 225
1507 643 1197.1248779296875 201 209 220
1517 643 1204.5994873046875 208 218 230
1522 643 1207.404296875 204 216 230
1528 643 1210.2098388671875 202 210 223
1529 643 1211.1453857421875 201 209 222
1557 643 1228.937744140625 201 213 225
1565 643 1233.6259765625 190 199 214
715 644 833.6624145507812 101 97 96
1298 644 1075.28466796875 194 200 214
1392 644 1128.7059326171875 196 199 214
1224 645 1036.41162109375 191 198 214
1241 645 1045.5185546875 197 207 219
991 648 929.9559326171875 195 201 217
716 651 836.595458984375 105 100 94
715 652 836.2642822265625 95 91 88
716 652 837.1170654296875 107 102 96
715 653 836.7872924804688 96 95 91
716 653 837.6395263671875 107 102 96
1876 653 1443.7745361328125 171 198 215
1912 653 1468.5928955078125 160 187 206
1913 653 1469.5482177734375 158 187 203
1919 653 1473.3702392578125 154 180 205
715 654 837.3111572265625 83 82 78
1708 654 1330.140625 185 201 216
1756 654 1361.3687744140625 172 184 206
1799 654 1390.7789306640625 178 193 216
1800 654 1391.728759765625 174 192 212
1806 654 1395.5289306640625 171 188 208
1807 654 1396.4791259765625 169 187 207
1809 654 1398.3797607421875 170 186 209
1814 654 1401.231201171875 169 192 210
1815 654 1402.181884765625 172 193 214
1816 654 1403.132568359375 165 183 207
1823 654 1406.93603515625 155 176 197
1840 654 1418.3529052734375 161 175 202
1841 654 1419.3048095703125 170 184 210
1842 654 1420.2567138671875 167 182 205
1843 654 1421.2086181640625 167 182 205
1844 654 1422.16064453125 165 179 205
1851 654 1426.921875 161 178 204
1858 654 1431.6846923828125 167 183 208
1867 654 1437.4022216796875 171 186 215
1869 654 1439.3084716796875 168 185 211
1870 654 1440.2618408203125 163 185 208
1876 654 1444.075439453125 163 181 205
1877 654 1445.029052734375 166 186 210
1878 654 1445.982666015625 165 187 210
1885 654 1449.7979736328125 161 179 203
1886 654 1450.7518310546875 152 167 196
1911 654 1467.93359375 156 176 201
1912 654 1468.888671875 156 178 202
1913 654 1469.8438720703125 153 178 200
1914 654 1470.799072265625 152 177 199
1915 654 1471.75439453125 152 174 198
1413 655 1144.31640625 187 193 205
1522 655 1210.26318359375 189 199 209
1546 655 1225.202392578125 186 196 208
1564 655 1235.488525390625 185 191 207
1582 655 1247.66064453125 188 196 209
1618 655 1270.1751708984375 187 194 210
1638 655 1284.274169921875 179 188 205
1642 655 1286.155517578125 187 196 213
1643 655 1287.0963134765625 180 192 208
1644 655 1288.0372314453125 178 187 204
1698 655 1322.912353515625 175 183 204
1699 655 1323.8564453125 176 184 205
1701 655 1325.7451171875 173 184 202
1702 655 1326.689453125 170 181 199
1706 655 1328.57861328125 171 187 203
1707 655 1329.523193359375 169 185 201
1713 655 1332.357666015625 176 184 207
1738 655 1349.3795166015625 175 188 207
1739 655 1350.325927734375 174 190 206
1740 655 1351.2723388671875 171 187 203
1745 655 1354.1123046875 172 183 205
1746 655 1355.05908203125 175 188 207
1748 655 1356.952880859375 169 181 203
1773 655 1374.010498046875 168 180 204
1779 655 1376.8558349609375 175 187 211
1780 655 1377.804443359375 174 189 212
1800 655 1392.0416259765625 174 188 214
1801 655 1392.9913330078125 159 174 197
1813 655 1400.5916748046875 170 186 211
1815 655 1402.492431640625 167 183 208
1816 655 1403.44287109375 156 170 197
1821 655 1405.3441162109375 170 188 210
1822 655 1406.2947998046875 162 180 204
1843 655 1421.5150146484375 170 182 208
1311 656 1085.8199462890625 182 179 198
1381 656 1126.2384033203125 180 177 196
1466 656 1176.1943359375 184 179 199
1473 656 1179.908935546875 182 174 195
1517 656 1207.8265380859375 181 180 198
1523 656 1211.556396484375 180 179 197
1528 656 1213.4219970703125 192 189 208
1558 656 1233.0361328125 185 184 202
1582 656 1248.0103759765625 183 181 202
1618 656 1270.518798828125 180 181 202
1643 656 1287.4354248046875 182 187 207
1644 656 1288.3760986328125 175 177 200
1649 656 1291.1986083984375 171 176 196
1650 656 1292.1396484375 177 182 204
1651 656 1293.080810546875 174 176 199
1657 656 1295.9046630859375 176 176 200
1674 656 1307.2081298828125 180 180 206
1675 656 1308.150634765625 177 177 203
1676 656 1309.0931396484375 178 178 204
1739 656 1350.6490478515625 176 187 207
1740 656 1351.5953369140625 176 187 207
1886 656 1451.352783203125 169 189 213
1050 657 957.1024169921875 194 202 213
1192 657 1024.3631591796875 178 179 197
1259 657 1058.8389892578125 183 184 204
1375 657 1122.9425048828125 195 190 212
1424 657 1150.6259765625 187 179 202
1619 657 1271.8018798828125 188 190 211
1715 657 1334.902587890625 179 186 214
946 658 914.2893676757812 187 193 209
959 658 919.5569458007812 175 180 199
977 658 927.4750366210938 179 185 201
981 658 928.3560791015625 172 177 196
991 658 932.7647094726562 182 187 206
995 658 934.5298461914062 179 184 203
1003 658 937.1792602539062 171 176 195
1004 658 938.0629272460938 172 175 194
1028 658 948.684326171875 171 174 193
1031 658 949.5709838867188 176 181 200
1085 658 973.5923461914062 181 182 200
1125 658 992.3814697265625 181 186 205
1150 658 1004.0567626953125 184 187 204
1472 658 1179.722900390625 195 194 212
856 659 882.5106201171875 172 177 197
885 659 892.9328002929688 175 180 199
905 659 899.9027709960938 171 176 195
917 659 904.2676391601562 169 175 191
925 659 906.8897094726562 172 178 194
1003 659 937.6481323242188 168 173 192
1084 659 973.151611328125 192 195 212
1089 659 975.828369140625 192 198 214
787 660 860.5823364257812 163 169 181
818 660 870.90869140625 165 172 190
715 661 838.887939453125 87 86 82
716 661 839.738037109375 111 106 100
718 661 841.4392700195312 130 129 124
719 661 842.2903442382812 130 132 129
715 662 839.415283203125 85 84 80
716 662 840.2648315429688 112 107 101
716 663 840.79248046875 102 98 89
1172 665 1016.5992431640625 190 196 212
1198 665 1029.2181396484375 187 193 207
1214 665 1037.3489990234375 194 200 214
1241 665 1050.9320068359375 200 206 220
1242 665 1051.8388671875 193 199 213
1282 665 1072.7431640625 191 199 212
1293 665 1079.122314453125 189 197 210
1336 665 1102.882080078125 200 208 221
1391 665 1133.180419921875 203 213 223
1913 665 1472.2313232421875 175 202 213
1914 665 1473.1849365234375 180 207 216
999 666 938.650634765625 187 194 210
1070 666 968.7399291992188 190 193 208
1085 666 975.8570556640625 186 192 206
1093 666 978.5294799804688 191 197 213
1094 666 979.4207763671875 183 186 203
1130 666 997.288818359375 181 184 203
1134 666 998.184326171875 185 186 204
1151 666 1007.1504516601562 181 182 200
1172 666 1017.035400390625 171 172 192
1187 666 1024.23876953125 179 182 199
1189 666 1026.0413818359375 176 182 198
1197 666 1028.746826171875 181 182 200
1227 666 1045.012939453125 182 183 203
1256 666 1060.4267578125 178 175 196
1311 666 1088.656005859375 182 181 199
1341 666 1105.1153564453125 187 184 203
1360 666 1116.11474609375 189 192 209
1361 666 1117.0322265625 182 185 200
1387 666 1132.6517333984375 183 182 198
1393 666 1135.4122314453125 182 181 197
1407 666 1143.7010498046875 189 191 206
1419 666 1151.0777587890625 185 187 202
1424 666 1152.9232177734375 182 183 201
1426 666 1154.769287109375 190 192 207
1459 666 1174.1827392578125 196 193 210
1461 666 1176.034423828125 196 198 213
1462 666 1176.96044921875 186 187 205
1468 666 1180.6658935546875 181 187 201
1472 666 1181.592529296875 191 194 209
1473 666 1182.519287109375 187 190 205
1495 666 1196.4351806640625 193 197 209
1500 666 1199.221435546875 204 208 220
1501 666 1200.150390625 194 198 210
1516 666 1209.446533203125 200 203 218
1517 666 1210.3768310546875 198 201 216
1518 666 1211.30712890625 193 196 213
1522 666 1213.168212890625 197 205 216
1528 666 1215.9605712890625 192 200 213
1529 666 1216.8914794921875 192 200 213
1530 666 1217.8226318359375 193 199 215
1546 666 1228.072021484375 191 199 212
1547 666 1229.0045166015625 195 201 217
1553 666 1232.7352294921875 192 195 212
1558 666 1235.5343017578125 196 202 216
1559 666 1236.467529296875 192 198 212
1563 666 1237.40087890625 201 207 221
1564 666 1238.3343505859375 199 207 218
1565 666 1239.2679443359375 187 193 207
1582 666 1250.478759765625 198 206 219
1600 666 1262.64013671875 197 207 219
1601 666 1263.5762939453125 191 200 215
1606 666 1266.3853759765625 197 207 219
1612 666 1270.13232421875 201 209 222
1613 666 1271.0692138671875 189 196 212
1619 666 1273.8807373046875 193 205 217
1620 666 1274.8179931640625 189 198 213
1636 666 1285.135009765625 195 209 222
1637 666 1286.073486328125 195 209 222
1638 666 1287.0120849609375 191 205 218
1639 666 1287.95068359375 178 192 205
1644 666 1290.7672119140625 186 204 216
1649 666 1293.5845947265625 188 204 219
1656 666 1297.34228515625 188 201 217
1657 666 1298.281982421875 188 200 216
1675 666 1310.505615234375 195 209 222
1676 666 1311.446533203125 192 206 219
1677 666 1312.3875732421875 181 193 207
1699 666 1326.5126953125 187 198 216
1702 666 1329.340087890625 179 192 209
1707 666 1332.168212890625 186 202 218
1708 666 1333.111083984375 184 200 216
1709 666 1334.053955078125 175 188 205
1714 666 1335.9400634765625 185 204 218
1715 666 1336.88330078125 182 199 215
1739 666 1352.93017578125 181 198 214
1740 666 1353.874755859375 180 202 216
1741 666 1354.819580078125 173 195 209
1746 666 1357.6541748046875 186 209 225
1748 666 1359.54443359375 172 193 210
1755 666 1363.32568359375 173 196 212
1780 666 1380.3568115234375 175 194 211
1781 666 1381.3037109375 181 200 215
1782 666 1382.250732421875 177 192 211
1801 666 1395.5159912109375 180 201 218
1802 666 1396.464111328125 172 190 210
1803 666 1397.4122314453125 172 189 209
1807 666 1399.3087158203125 187 206 221
1809 666 1401.20556640625 168 194 209
1815 666 1405.0 174 197 213
1816 666 1405.94873046875 168 191 207
1817 666 1406.897705078125 164 187 205
1821 666 1407.8465576171875 178 203 223
1822 666 1408.7955322265625 177 199 220
1824 666 1410.69384765625 168 186 208
1842 666 1423.0390625 172 193 212
1843 666 1423.9891357421875 172 193 212
1844 666 1424.9393310546875 170 188 210
1849 666 1427.790283203125 177 193 216
1851 666 1429.6912841796875 168 189 208
1852 666 1430.641845703125 163 184 205
1866 666 1439.2000732421875 154 174 198
1867 666 1440.1513671875 160 178 202
1868 666 1441.1026611328125 159 181 202
1869 666 1442.0540771484375 170 195 215
1870 666 1443.0054931640625 177 204 221
1871 666 1443.95703125 165 193 207
1877 666 1447.7637939453125 163 190 207
1878 666 1448.7156982421875 163 192 208
1879 666 1449.6676025390625 166 193 210
1886 666 1453.475830078125 163 190 207
1887 666 1454.4281005859375 151 177 194
1888 666 1455.38037109375 157 179 200
1912 666 1471.5791015625 167 185 207
1913 666 1472.532470703125 161 182 201
1914 666 1473.4859619140625 177 199 213
1915 666 1474.4395751953125 169 191 205
1916 666 1475.3931884765625 168 187 204
715 667 841.5331420898438 86 82 79
844 667 880.6957397460938 176 183 201
876 667 891.9383544921875 179 186 204
918 667 907.58251953125 182 188 204
925 667 909.3261108398438 179 186 202
939 667 915.4370727539062 177 180 197
942 667 916.3110961914062 182 189 205
947 667 918.0599365234375 168 175 191
981 667 931.2083740234375 176 182 198
1003 667 940.0047607421875 170 177 193
1055 667 962.9854736328125 173 179 195
1134 667 998.6295776367188 177 178 198
1284 667 1075.39111328125 183 181 202
1381 667 1129.3665771484375 187 184 203
1467 667 1180.1160888671875 176 177 195
1472 667 1181.96875 180 179 197
1494 667 1195.8782958984375 188 187 205
1509 667 1205.166015625 177 172 192
1528 667 1216.3260498046875 172 173 191
1553 667 1233.095703125 180 181 199
1558 667 1235.89404296875 186 187 205
1559 667 1236.8270263671875 177 178 196
1566 667 1240.5599365234375 174 172 193
1581 667 1249.8995361328125 176 177 195
1597 667 1260.1849365234375 175 176 196
1598 667 1261.1204833984375 177 178 198
1599 667 1262.0562744140625 176 179 196
1600 667 1262.9920654296875 174 180 196
1612 667 1270.482177734375 183 189 205
1613 667 1271.4189453125 179 184 203
1618 667 1273.2926025390625 183 190 208
1619 667 1274.2296142578125 177 184 200
1636 667 1285.4808349609375 176 185 202
1637 667 1286.4190673828125 179 188 205
1643 667 1290.1728515625 178 190 206
1644 667 1291.111572265625 175 187 203
1645 667 1292.05029296875 171 179 198
1649 667 1293.9281005859375 175 186 204
1651 667 1295.8062744140625 168 180 196
1656 667 1297.684814453125 174 185 203
1699 667 1326.8477783203125 173 179 201
1700 667 1327.7899169921875 172 180 201
1702 667 1329.6744384765625 169 177 198
1706 667 1331.5592041015625 174 185 205
1708 667 1333.4444580078125 165 176 196
1714 667 1336.2728271484375 171 187 203
1715 667 1337.2158203125 163 176 193
1739 667 1353.2586669921875 171 182 202
1740 667 1354.203125 166 181 200
1741 667 1355.1475830078125 161 176 197
1745 667 1357.036865234375 165 177 201
1746 667 1357.9815673828125 168 186 206
1747 667 1358.9263916015625 167 186 203
1753 667 1361.7613525390625 173 192 207
1754 667 1362.70654296875 180 199 216
1755 667 1363.6517333984375 168 183 204
1757 667 1365.5423583984375 170 177 203
1766 667 1372.162109375 173 186 203
1772 667 1375.946533203125 171 186 205
1773 667 1376.892822265625 175 192 208
1779 667 1379.732177734375 172 187 210
1780 667 1380.6788330078125 166 181 202
1781 667 1381.62548828125 162 177 198
1799 667 1393.93896484375 178 190 212
1800 667 1394.88671875 177 192 213
1802 667 1396.7823486328125 164 179 202
1806 667 1398.6783447265625 175 186 208
1807 667 1399.6263427734375 175 190 209
1808 667 1400.5745849609375 173 191 211
1814 667 1404.3677978515625 182 199 219
1816 667 1406.264892578125 157 175 195
1821 667 1408.1622314453125 169 187 209
1822 667 1409.111083984375 166 184 208
1823 667 1410.0599365234375 169 185 210
1824 667 1411.0089111328125 167 181 207
1842 667 1423.351318359375 169 185 208
1851 667 1430.0020751953125 160 176 201
1852 667 1430.9525146484375 159 175 200
1858 667 1434.754638671875 163 184 205
1870 667 1443.3135986328125 163 185 206
1877 667 1448.07080078125 158 180 203
1879 667 1449.97412109375 159 181 204
1887 667 1454.733642578125 158 180 201
1915 667 1474.740966796875 159 180 197
718 668 843.5473022460938 133 134 128
719 668 844.396240234375 134 139 135
769 668 858.0238647460938 154 161 171
817 668 872.591552734375 164 169 188
885 668 895.904541015625 168 173 193
1109 668 987.4598999023438 183 190 206
1155 668 1009.8276977539062 188 194 210
1215 668 1039.536865234375 197 198 216
1381 668 1129.760986328125 192 193 213
1510 668 1206.4647216796875 189 184 207
1677 668 1313.0655517578125 176 176 202
1755 668 1363.9783935546875 167 172 201
1809 668 1401.840576171875 170 186 211
1916 668 1475.9962158203125 156 174 198
718 669 844.076416015625 127 128 122
719 669 844.9248657226562 125 127 124
1109 669 987.9119262695312 199 206 222
1607 669 1268.3760986328125 186 187 208
1613 669 1272.1202392578125 188 195 214
715 670 842.064697265625 77 73 70
716 670 842.91162109375 98 93 89
1531 670 1220.216796875 201 211 223
715 679 844.7354736328125 79 75 74
716 679 845.5797119140625 95 92 87
717 679 846.4242553710938 113 110 103
925 679 913.2677612304688 189 195 211
938 679 918.482421875 191 197 213
943 679 921.0933837890625 189 196 212
947 679 921.9642333984375 179 186 202
977 679 934.1830444335938 191 200 215
992 679 940.3110961914062 193 200 216
1004 679 944.6957397460938 182 189 205
1013 679 948.207763671875 195 203 216
1014 679 949.08642578125 191 198 214
1028 679 955.243408203125 192 201 216
1029 679 956.1239624023438 191 201 213
1032 679 957.0046997070312 201 207 223
1037 679 958.7669067382812 184 194 206
1052 679 965.8250122070312 188 196 209
1060 679 968.4755859375 186 193 209
1126 679 999.544921875 194 206 218
715 680 845.2721557617188 78 77 73
716 680 846.1158447265625 103 100 93
717 680 846.9598388671875 109 106 97
718 680 847.80419921875 129 126 119
719 680 848.64892578125 131 132 127
807 680 874.1424560546875 167 173 189
837 680 883.5609741210938 165 170 189
857 680 890.43359375 169 174 194
896 680 903.3698120117188 178 181 200
905 680 906.8302001953125 174 179 198
970 680 932.0471801757812 177 180 197
1013 680 948.6859130859375 181 187 203
1014 680 949.5640869140625 184 187 204
1028 680 955.7180786132812 180 186 202
1032 680 957.4784545898438 179 180 198
1036 680 958.3590087890625 177 182 201
1051 680 965.4118041992188 179 182 199
1052 680 966.2944946289062 176 179 196
1060 680 968.9437255859375 175 178 195
1061 680 969.8273315429688 180 183 200
1066 680 972.4793090820312 180 183 200
1070 680 973.36376953125 176 182 198
1071 680 974.2484130859375 176 182 196
1085 680 980.4473266601562 181 184 201
1086 680 981.3338012695312 183 186 203
1089 680 982.220458984375 186 189 208
1090 680 983.1072998046875 184 190 206
1094 680 983.994384765625 180 183 202
1109 680 991.098876953125 185 188 205
1110 680 991.9879150390625 185 188 205
1121 680 997.326416015625 183 186 203
1125 680 999.1076049804688 181 187 203
1126 680 999.9984741210938 181 189 202
1129 680 1000.8895874023438 182 183 201
1130 680 1001.7808837890625 187 190 207
1133 680 1001.7808837890625 186 189 206
1134 680 1002.6724243164062 187 193 207
1145 680 1008.0258178710938 186 187 207
1146 680 1008.918701171875 188 189 207
1147 680 1009.8118896484375 182 183 201
1151 680 1011.5987548828125 183 189 205
1155 680 1013.3864135742188 188 189 207
1160 680 1015.1748657226562 184 187 202
1171 680 1020.5449829101562 184 190 206
1172 680 1021.440673828125 184 190 206
1187 680 1028.6131591796875 182 183 201
1188 680 1029.5106201171875 184 190 206
1189 680 1030.408203125 184 190 206
1193 680 1032.2039794921875 189 195 209
1194 680 1033.1021728515625 188 194 208
1197 680 1033.1021728515625 190 196 212
1198 680 1034.00048828125 190 196 210
1214 680 1042.093994140625 190 196 210
1215 680 1042.9942626953125 195 201 215
1216 680 1043.8946533203125 186 192 206
1220 680 1045.6959228515625 185 193 206
1224 680 1046.596923828125 187 193 207
1225 680 1047.4979248046875 183 189 203
1226 680 1048.3992919921875 177 183 199
1232 680 1052.0062255859375 188 194 208
1233 680 1052.9083251953125 193 199 213
1237 680 1054.7132568359375 196 199 214
