ply
format ascii 1.0
element vertex 1235
property float x
property float y
property float z
property float red
property float green
property float blue
end_header
1503 543 1167.388916015625 189 179 203
1504 543 1168.34326171875 190 185 205
1517 543 1176.9354248046875 186 187 207
1523 543 1179.80078125 181 190 207
1539 543 1190.31298828125 201 207 223
1540 543 1191.26904296875 199 208 223
1541 543 1192.2252197265625 205 214 229
1546 543 1195.0941162109375 201 213 227
1547 543 1196.050537109375 196 208 222
1558 543 1201.790771484375 198 212 223
1559 543 1202.7476806640625 197 209 221
1877 543 1417.6212158203125 159 176 202
1878 543 1418.5911865234375 153 173 198
1879 543 1419.5611572265625 152 172 199
1907 543 1439.940673828125 146 177 197
1908 543 1440.9114990234375 149 177 198
1914 543 1444.7955322265625 147 178 199
1915 543 1445.7666015625 146 177 198
913 544 864.5206909179688 184 190 206
917 544 866.3394165039062 190 196 212
1055 544 922.848876953125 193 200 216
1056 544 923.7710571289062 197 203 219
1064 544 926.5386962890625 190 197 213
1260 544 1025.6597900390625 190 193 210
1264 544 1026.5987548828125 186 187 205
1277 544 1034.1146240234375 193 199 215
1278 544 1035.0545654296875 195 202 218
1296 544 1045.40185546875 200 206 222
1467 544 1144.814453125 178 175 196
1488 544 1158.1519775390625 189 186 207
1489 544 1159.105224609375 191 188 209
1502 544 1166.734375 187 184 205
1503 544 1167.6883544921875 191 189 210
1517 544 1177.2322998046875 190 207 215
1523 544 1180.0970458984375 188 206 218
1540 544 1191.5623779296875 207 217 229
1546 544 1195.3865966796875 201 211 223
1859 544 1405.2615966796875 157 174 204
1860 544 1406.2308349609375 153 168 201
1861 544 1407.2000732421875 158 171 203
1863 544 1409.1387939453125 164 178 205
1869 544 1413.0166015625 163 177 203
1870 544 1413.9862060546875 163 179 205
1871 544 1414.955810546875 159 176 202
1872 544 1415.925537109375 156 172 198
1878 544 1418.834716796875 138 162 190
1907 544 1440.1805419921875 165 203 216
1908 544 1441.1512451171875 162 198 212
1916 544 1446.9765625 171 209 222
711 545 797.8953857421875 78 79 83
881 545 853.1412353515625 182 187 206
901 545 860.3964233398438 187 194 210
1045 545 918.62939453125 193 199 215
1046 545 919.5504150390625 196 202 218
1249 545 1019.4370727539062 188 187 205
1250 545 1020.3749389648438 190 191 209
1251 545 1021.3128662109375 191 194 211
1255 545 1023.1891479492188 192 198 214
1259 545 1025.0657958984375 198 199 217
1260 545 1026.00439453125 197 200 217
1264 545 1026.9429931640625 207 213 229
1277 545 1034.4564208984375 205 211 227
1278 545 1035.3961181640625 200 208 221
1454 545 1137.50830078125 185 182 203
1455 545 1138.45947265625 185 182 203
1460 545 1141.313720703125 188 183 205
1461 545 1142.2652587890625 188 183 205
1466 545 1144.168701171875 192 189 210
1467 545 1145.1204833984375 191 188 209
1488 545 1158.45458984375 196 197 215
1494 545 1162.2672119140625 204 207 226
1495 545 1163.2205810546875 206 207 227
1834 545 1388.0723876953125 169 185 210
1835 545 1389.0406494140625 166 184 208
1836 545 1390.009033203125 166 183 209
1837 545 1390.977294921875 157 173 199
1843 545 1394.8511962890625 161 177 203
1851 545 1400.6634521484375 149 171 195
1859 545 1405.508056640625 156 173 203
1860 545 1406.4771728515625 165 180 211
860 546 845.4229736328125 175 181 203
881 546 853.5648803710938 190 195 214
1027 546 911.6605834960938 196 205 220
1028 546 912.579833984375 190 197 215
1031 546 912.579833984375 189 197 216
1236 546 1012.2890014648438 184 190 206
1237 546 1013.2255249023438 190 196 212
1249 546 1019.7847900390625 193 196 213
1250 546 1020.7222900390625 199 205 219
1251 546 1021.659912109375 197 205 218
1255 546 1023.5355224609375 204 214 226
1259 546 1025.41162109375 204 210 224
1260 546 1026.349853515625 203 209 223
1433 546 1124.5123291015625 181 179 200
1454 546 1137.8172607421875 189 190 210
1455 546 1138.7681884765625 188 189 209
1456 546 1139.71923828125 188 189 210
1461 546 1142.572998046875 196 202 218
1466 546 1144.475830078125 192 198 214
1467 546 1145.427490234375 190 197 213
1488 546 1158.7579345703125 207 215 228
1494 546 1162.569580078125 204 214 226
1495 546 1163.522705078125 199 207 220
1809 546 1371.8720703125 159 173 202
1813 546 1372.83935546875 159 173 200
1814 546 1373.8067626953125 165 181 207
1816 546 1375.7415771484375 159 170 200
1835 546 1389.290771484375 170 188 212
1836 546 1390.2589111328125 166 186 210
1837 546 1391.2271728515625 169 187 211
1859 546 1405.75537109375 172 194 217
1879 546 1420.2933349609375 173 209 223
1008 547 902.8754272460938 202 209 225
1009 547 903.7925415039062 201 208 224
1220 547 1004.2196044921875 183 186 205
1236 547 1012.64013671875 203 210 226
1237 547 1013.5763549804688 200 208 221
1250 547 1021.0704956054688 204 210 224
1251 547 1022.0078125 203 211 224
1412 547 1112.489990234375 185 180 202
1418 547 1115.3353271484375 185 180 202
1419 547 1116.2840576171875 189 184 207
1433 547 1124.8258056640625 187 190 209
1454 547 1138.126953125 197 203 219
1455 547 1139.07763671875 201 208 224
1456 547 1140.028564453125 205 210 229
1460 547 1141.930419921875 203 210 226
1461 547 1142.8814697265625 202 210 223
1466 547 1144.7838134765625 208 218 230
1467 547 1145.735107421875 206 213 229
1793 547 1360.524169921875 162 176 203
1794 547 1361.49072265625 164 180 205
1795 547 1362.4573974609375 165 181 206
1801 547 1366.32421875 161 183 206
1802 547 1367.2911376953125 162 178 203
1807 547 1370.1920166015625 160 177 203
1808 547 1371.1590576171875 164 179 208
1809 547 1372.1260986328125 164 178 207
1815 547 1375.027587890625 166 186 211
1816 547 1375.994873046875 169 184 213
1834 547 1388.57373046875 171 191 215
713 548 800.1312255859375 102 101 97
714 548 801.0199584960938 118 115 110
832 548 836.3641357421875 160 168 187
833 548 837.2645874023438 170 178 197
995 548 898.6934814453125 193 199 215
1192 548 989.6353149414062 180 181 201
1193 548 990.5679931640625 176 177 197
1209 548 998.9684448242188 188 193 212
1210 548 999.9024658203125 192 198 214
1215 548 1002.705322265625 193 202 217
1220 548 1004.5745239257812 194 203 218
1236 548 1012.9921264648438 201 211 223
1237 548 1013.927978515625 203 213 223
1386 548 1096.7041015625 182 177 199
1400 548 1105.2261962890625 191 189 210
1401 548 1106.173583984375 194 195 215
1402 548 1107.12109375 185 182 203
1406 548 1109.0162353515625 192 190 212
1407 548 1109.9639892578125 193 191 213
1412 548 1112.8077392578125 194 195 213
1419 548 1116.6005859375 187 190 209
1433 548 1125.1400146484375 196 208 220
1434 548 1126.0892333984375 200 210 222
1454 548 1138.4375 205 215 225
1759 548 1337.6026611328125 178 190 214
1765 548 1341.4637451171875 165 181 206
1774 548 1347.2568359375 165 181 206
1775 548 1348.2225341796875 159 175 201
1794 548 1361.7474365234375 170 186 209
1795 548 1362.7138671875 171 189 211
1802 548 1367.5467529296875 169 191 212
1808 548 1371.413818359375 172 197 217
1809 548 1372.3807373046875 171 193 214
1816 548 1376.2489013671875 171 198 217
1817 548 1377.216064453125 172 197 217
1837 548 1391.728759765625 183 215 228
711 549 798.8147583007812 74 75 77
712 549 799.7024536132812 98 98 98
713 549 800.5903930664062 105 104 100
813 549 830.5064697265625 167 174 192
966 549 887.2113647460938 200 207 225
976 549 889.9511108398438 195 202 218
1183 549 986.2682495117188 188 189 209
1184 549 987.2000732421875 188 189 209
1188 549 989.064208984375 195 196 216
1189 549 989.9964599609375 185 186 206
1192 549 989.9964599609375 193 194 214
1193 549 990.9288330078125 191 194 213
1209 549 999.3262939453125 205 211 227
1210 549 1000.2599487304688 206 213 229
1211 549 1001.1937866210938 206 212 226
1215 549 1003.0618286132812 201 210 225
1356 549 1080.0115966796875 182 185 204
1369 549 1087.5701904296875 189 186 207
1371 549 1089.4608154296875 181 176 198
1380 549 1094.189208984375 197 192 214
1381 549 1095.1351318359375 195 190 212
1385 549 1096.0811767578125 190 188 209
1386 549 1097.02734375 190 186 209
1400 549 1105.546875 191 194 213
1401 549 1106.4940185546875 197 200 219
1402 549 1107.441162109375 203 204 224
1406 549 1109.3358154296875 205 207 228
1407 549 1110.2833251953125 203 205 226
1412 549 1113.126220703125 204 210 226
1413 549 1114.0740966796875 202 205 222
1419 549 1116.9180908203125 200 207 223
1741 549 1325.324462890625 170 180 207
1749 549 1330.1466064453125 169 174 203
1775 549 1348.482421875 166 186 210
1795 549 1362.9710693359375 183 204 223
1802 549 1367.802978515625 190 217 234
1808 549 1371.66943359375 185 213 227
1809 549 1372.6361083984375 185 212 229
1810 549 1373.6029052734375 184 209 229
712 550 800.1630859375 95 95 95
813 550 830.9464721679688 180 187 205
955 550 882.14794921875 197 204 222
956 550 883.0594482421875 192 199 217
965 550 886.7073974609375 189 196 214
1155 550 971.745849609375 179 180 200
1166 550 977.3239135742188 184 189 208
1167 550 978.2540283203125 183 190 208
1183 550 986.6316528320312 203 212 227
1184 550 987.5631713867188 204 213 228
1188 550 989.4265747070312 202 209 225
1189 550 990.3585205078125 194 201 217
1193 550 991.2905883789062 204 213 228
1355 550 1079.3966064453125 186 187 207
1368 550 1086.9521484375 184 185 205
1369 550 1087.8970947265625 193 196 215
1370 550 1088.842041015625 194 197 214
1371 550 1089.787109375 188 189 209
1375 550 1091.6776123046875 196 202 218
1380 550 1094.5140380859375 198 204 220
1381 550 1095.459716796875 198 203 222
1385 550 1096.405517578125 200 207 223
1386 550 1097.351318359375 196 203 221
1400 550 1105.868408203125 201 210 225
1401 550 1106.8153076171875 202 211 226
1402 550 1107.76220703125 205 214 229
1407 550 1110.6033935546875 202 212 224
1732 550 1318.84228515625 174 181 207
1733 550 1319.8060302734375 166 177 199
1740 550 1324.6256103515625 170 185 208
1742 550 1326.5538330078125 172 182 209
1775 550 1348.7431640625 175 207 222
1776 550 1349.70849609375 178 204 221
1796 550 1364.1949462890625 187 210 224
1141 551 965.6168823242188 175 176 197
1142 551 966.5448608398438 183 184 205
1145 551 967.4730224609375 185 183 205
1146 551 968.4012451171875 181 179 201
1150 551 970.2582397460938 187 189 210
1166 551 977.691650390625 191 200 217
1167 551 978.6214599609375 195 207 223
1184 551 987.9271240234375 205 214 229
1325 551 1062.755859375 190 188 209
1326 551 1063.69775390625 178 176 197
1330 551 1065.58203125 189 188 206
1331 551 1066.5242919921875 183 182 200
1335 551 1067.4666748046875 191 192 212
1336 551 1068.4090576171875 185 186 206
1355 551 1079.726806640625 196 199 218
1368 551 1087.2801513671875 202 207 226
1369 551 1088.2247314453125 204 211 227
1370 551 1089.16943359375 203 210 226
1375 551 1092.004150390625 202 209 225
1376 551 1092.94921875 203 209 225
1380 551 1094.8397216796875 206 213 229
1381 551 1095.78515625 203 210 226
1386 551 1097.6761474609375 205 212 228
1693 551 1293.114501953125 176 182 206
1700 551 1297.92529296875 167 182 203
1701 551 1298.8875732421875 164 181 201
1702 551 1299.8499755859375 164 181 199
1708 551 1302.737548828125 171 177 203
1709 551 1303.7000732421875 166 170 197
1733 551 1320.0731201171875 179 194 213
1734 551 1321.0367431640625 183 198 219
1742 551 1326.8194580078125 181 198 218
765 552 816.6180419921875 156 164 177
784 552 822.8729858398438 159 165 179
934 552 874.7857055664062 186 192 208
1116 552 953.9444580078125 175 176 196
1121 552 956.7219848632812 174 179 198
1125 552 958.574462890625 184 187 206
1128 552 958.574462890625 184 187 206
1129 552 959.5009155273438 186 189 208
1130 552 960.427490234375 179 181 202
1141 552 965.9901733398438 194 201 219
1142 552 966.9177856445312 197 204 222
1146 552 968.7734375 193 200 218
1150 552 970.6296997070312 195 207 223
1154 552 971.5580444335938 206 213 231
1155 552 972.4865112304688 200 209 224
1166 552 978.060302734375 195 209 222
1294 552 1045.2215576171875 181 184 201
1295 552 1046.1611328125 181 184 201
1301 552 1049.9205322265625 185 191 207
1324 552 1062.150634765625 195 198 215
1325 552 1063.0921630859375 196 199 216
1326 552 1064.0338134765625 197 200 217
1330 552 1065.91748046875 201 207 223
1331 552 1066.859375 199 207 220
1335 552 1067.801513671875 200 207 223
1336 552 1068.74365234375 195 204 219
1354 552 1079.114501953125 201 213 225
1355 552 1080.057861328125 200 212 224
1356 552 1081.0013427734375 201 210 225
1670 552 1278.0062255859375 173 178 200
1694 552 1294.349609375 173 183 208
1695 552 1295.3115234375 177 187 212
1702 552 1300.1219482421875 169 190 207
1707 552 1302.0465087890625 176 193 211
1708 552 1303.0087890625 177 192 213
1709 552 1303.97119140625 186 198 220
1735 552 1322.2677001953125 193 217 229
711 553 800.2012329101562 76 77 79
1105 553 948.7744750976562 186 189 208
1117 553 955.2486572265625 189 190 210
1121 553 957.0997924804688 191 196 215
1125 553 958.9515380859375 196 199 218
1129 553 959.8776245117188 197 202 221
1130 553 960.8038330078125 196 199 218
1141 553 966.3643188476562 201 210 227
1142 553 967.2915649414062 199 208 223
1277 553 1036.1781005859375 188 189 207
1278 553 1037.1162109375 192 193 211
1294 553 1045.564453125 192 195 212
1295 553 1046.503662109375 194 197 214
1296 553 1047.443115234375 194 197 214
1301 553 1050.2618408203125 194 200 216
1306 553 1052.1416015625 200 203 220
1324 553 1062.4881591796875 201 207 223
1325 553 1063.4293212890625 199 206 222
1326 553 1064.3707275390625 194 201 217
1330 553 1066.253662109375 204 212 225
1331 553 1067.1954345703125 201 209 222
1644 553 1261.0015869140625 164 170 194
1650 553 1263.8804931640625 175 181 205
1651 553 1264.84033203125 175 179 204
1668 553 1276.3624267578125 180 188 211
1695 553 1295.585205078125 189 206 226
1701 553 1299.4326171875 190 213 227
1707 553 1302.3187255859375 191 214 228
1085 554 939.9244384765625 175 176 196
1089 554 940.8469848632812 179 182 199
1090 554 941.7695922851562 176 181 200
1104 554 948.2325439453125 193 202 217
1105 554 949.156494140625 193 202 217
1116 554 954.703125 199 205 221
1121 554 957.4784545898438 196 205 220
1125 554 959.3294677734375 201 210 225
1129 554 960.2551879882812 202 209 225
1259 554 1027.1533203125 185 186 204
1260 554 1028.0899658203125 188 191 208
1264 554 1029.0267333984375 198 201 216
1265 554 1029.963623046875 189 192 207
1278 554 1037.4627685546875 198 204 220
1279 554 1038.400634765625 190 196 210
1288 554 1043.092041015625 196 204 217
1294 554 1045.908203125 196 204 217
1295 554 1046.84716796875 195 203 216
1296 554 1047.7862548828125 195 205 217
1301 554 1050.6041259765625 199 209 221
1305 554 1051.5435791015625 203 211 224
1306 554 1052.4832763671875 202 210 223
1631 554 1252.6519775390625 186 191 211
1632 554 1253.61083984375 179 179 203
1638 554 1257.4466552734375 177 177 203
1644 554 1261.283447265625 180 188 211
1645 554 1262.2427978515625 173 179 203
1652 554 1266.0809326171875 178 182 207
1696 554 1296.8211669921875 190 212 225
1913 554 1445.7568359375 175 187 211
713 555 801.9738159179688 102 102 100
714 555 802.8605346679688 121 118 113
1056 555 926.498779296875 168 169 190
1066 555 931.0988159179688 177 175 196
1080 555 937.5457153320312 191 194 213
1081 555 938.4673461914062 192 195 214
1085 555 940.3110961914062 201 202 222
1086 555 941.2332153320312 197 198 218
1089 555 941.2332153320312 202 205 222
1090 555 942.155517578125 192 197 216
1104 555 948.6158447265625 201 210 225
1237 555 1015.34326171875 175 178 195
1238 555 1016.2780151367188 178 179 197
1250 555 1022.8245239257812 187 188 206
1251 555 1023.76025390625 187 190 207
1255 555 1025.6319580078125 196 197 215
1256 555 1026.568115234375 194 193 211
1259 555 1027.5042724609375 202 203 221
1260 555 1028.4405517578125 200 203 220
1264 555 1029.376953125 205 211 225
1265 555 1030.3135986328125 201 207 221
1277 555 1036.8726806640625 205 211 227
1601 555 1233.77880859375 182 180 202
1607 555 1237.608154296875 177 179 200
1612 555 1239.5233154296875 189 185 208
1613 555 1240.48095703125 188 186 208
1632 555 1253.8951416015625 185 193 212
1638 555 1257.7301025390625 187 192 214
1644 555 1261.5660400390625 184 197 216
1652 555 1266.362548828125 196 202 224
1905 555 1440.1846923828125 151 179 203
1906 555 1441.154052734375 148 179 200
1907 555 1442.1234130859375 150 181 201
1908 555 1443.0928955078125 144 172 194
1913 555 1446.0013427734375 157 173 198
1914 555 1446.970947265625 150 171 192
1915 555 1447.9405517578125 142 164 185
1916 555 1448.9102783203125 138 163 185
712 556 801.551025390625 77 79 78
713 556 802.4368896484375 88 88 86
1046 556 922.2982177734375 175 181 197
1047 556 923.2166748046875 176 182 198
1056 556 926.89208984375 173 174 195
1065 556 930.5702514648438 191 197 213
1066 556 931.490234375 193 196 213
1080 556 937.9344482421875 195 204 219
1081 556 938.855712890625 202 211 226
1085 556 940.6986694335938 203 210 226
1236 556 1014.7650146484375 192 197 216
1237 556 1015.6992797851562 195 200 219
1238 556 1016.6336669921875 189 196 212
1250 556 1023.1779174804688 193 199 215
1251 556 1024.11328125 208 214 228
1255 556 1025.984375 209 215 229
1256 556 1026.920166015625 197 203 217
1259 556 1027.8560791015625 199 205 219
1260 556 1028.7919921875 209 215 227
1264 556 1029.7281494140625 204 210 222
1575 556 1215.8980712890625 191 192 212
1576 556 1216.853759765625 187 188 209
1577 556 1217.8094482421875 185 186 207
1595 556 1230.2410888671875 186 194 213
1607 556 1237.89697265625 186 195 212
1637 556 1257.0556640625 198 214 229
1638 556 1258.0142822265625 198 214 227
1870 556 1416.21533203125 165 183 207
1871 556 1417.1834716796875 159 181 204
1872 556 1418.151611328125 148 172 196
1877 556 1420.0880126953125 152 176 200
1878 556 1421.0562744140625 152 176 200
1879 556 1422.024658203125 157 179 203
1880 556 1422.992919921875 149 171 195
1905 556 1440.4307861328125 151 186 208
1907 556 1442.3692626953125 144 182 201
1908 556 1443.3385009765625 145 183 204
1909 556 1444.3077392578125 151 187 209
1914 556 1447.2159423828125 149 177 198
1915 556 1448.1854248046875 153 184 202
1916 556 1449.1549072265625 163 192 210
711 557 801.1304321289062 69 73 76
713 557 802.9010009765625 108 108 106
1023 557 912.6072387695312 168 173 193
1024 557 913.5233764648438 165 170 189
1031 557 915.356201171875 174 179 199
1032 557 916.2728881835938 172 177 197
1046 557 922.6943969726562 188 194 210
1047 557 923.6124877929688 183 189 205
1065 557 930.9629516601562 202 208 224
1066 557 931.8825073242188 201 207 223
1210 557 1002.0603637695312 183 184 202
1211 557 1002.9924926757812 181 182 200
1215 557 1004.857177734375 191 194 213
1220 557 1006.722412109375 190 193 210
1221 557 1007.6552124023438 176 179 196
1237 557 1016.0560913085938 203 212 227
1238 557 1016.9901733398438 200 209 224
1250 557 1023.5321044921875 208 214 230
1251 557 1024.4671630859375 207 213 227
1559 557 1205.6873779296875 186 184 206
1576 557 1217.1483154296875 187 189 210
1577 557 1218.1038818359375 190 192 213
1594 557 1229.575927734375 182 198 213
1601 557 1234.35888671875 194 206 222
1612 557 1240.100830078125 211 220 237
1613 557 1241.0579833984375 209 218 235
1834 557 1390.349609375 169 183 209
1852 557 1403.887451171875 148 163 196
1860 557 1408.724609375 154 163 196
1861 557 1409.692138671875 157 166 197
1865 557 1413.5628662109375 158 176 200
1870 557 1416.4664306640625 158 174 200
1871 557 1417.434326171875 153 175 198
1872 557 1418.4022216796875 151 177 200
1877 557 1420.33837890625 158 183 205
1878 557 1421.306396484375 157 182 204
1879 557 1422.2745361328125 160 182 205
1880 557 1423.2427978515625 157 179 203
1908 557 1443.584716796875 154 197 213
1914 557 1447.4615478515625 163 196 213
1915 557 1448.430908203125 166 199 214
1916 557 1449.4002685546875 166 198 213
712 558 802.4811401367188 91 93 92
821 558 835.8480834960938 182 187 206
1023 558 913.0087890625 182 189 207
1024 558 913.9244995117188 188 197 214
1027 558 914.8403930664062 188 197 214
1028 558 915.7565307617188 186 195 210
1031 558 915.7565307617188 198 207 224
1032 558 916.6727905273438 189 201 217
1046 558 923.091552734375 198 207 222
1047 558 924.0092163085938 194 201 217
1183 558 988.4619140625 181 186 205
1184 558 989.3917236328125 182 189 207
1193 558 993.1123046875 186 189 208
1210 558 1002.4230346679688 199 207 220
1211 558 1003.3548583984375 202 210 223
1215 558 1005.2188720703125 204 214 226
1220 558 1007.0834350585938 205 215 227
1221 558 1008.015869140625 193 203 215
1232 558 1014.5466918945312 200 209 224
1539 558 1193.58447265625 191 186 209
1540 558 1194.5379638671875 187 182 204
1541 558 1195.4915771484375 189 184 206
1547 558 1199.3065185546875 187 188 209
1553 558 1203.12255859375 187 188 208
1560 558 1206.93994140625 180 182 203
1576 558 1217.443603515625 198 212 225
1577 558 1218.39892578125 200 212 226
1600 558 1233.693603515625 198 216 228
1815 558 1377.079833984375 156 178 202
1816 558 1378.0457763671875 157 174 200
1835 558 1391.572509765625 165 181 207
1836 558 1392.5390625 160 180 205
1843 558 1397.37255859375 166 182 208
1844 558 1398.33935546875 160 177 205
1845 558 1399.3062744140625 158 173 202
1852 558 1404.141357421875 154 173 205
1860 558 1408.9776611328125 163 177 206
1862 558 1410.9124755859375 174 192 214
1870 558 1416.718017578125 172 197 217
1871 558 1417.685791015625 175 204 220
1872 558 1418.653564453125 168 201 216
1878 558 1421.5572509765625 158 190 205
1879 558 1422.5252685546875 173 202 218
1880 558 1423.4932861328125 166 195 211
1908 558 1443.8316650390625 166 213 223
1909 558 1444.8006591796875 163 205 217
1916 558 1449.6461181640625 172 204 215
1917 558 1450.6153564453125 169 199 210
987 559 897.8780517578125 170 173 192
999 559 902.441162109375 174 181 199
1009 559 907.0088500976562 191 198 216
1023 559 913.4111938476562 198 205 223
1024 559 914.3265380859375 199 208 225
1027 559 915.2420654296875 195 204 221
1028 559 916.15771484375 195 204 219
1031 559 916.15771484375 200 209 226
1155 559 973.9784545898438 166 171 190
1166 559 979.5437622070312 180 181 202
1167 559 980.4718017578125 184 185 206
1168 559 981.4000244140625 181 179 203
1183 559 988.8306274414062 194 199 218
1184 559 989.7600708007812 192 199 217
1188 559 991.619384765625 198 203 222
1189 559 992.5492553710938 196 201 220
1192 559 992.5492553710938 197 200 219
1193 559 993.479248046875 196 201 220
1209 559 1001.8552856445312 204 210 226
1210 559 1002.78662109375 209 217 230
1211 559 1003.7180786132812 206 214 227
1215 559 1005.5814208984375 203 213 225
1524 559 1184.3585205078125 187 184 205
1525 559 1185.3109130859375 187 184 205
1541 559 1195.7930908203125 194 193 211
1558 559 1205.3302001953125 200 212 226
1559 559 1206.284423828125 198 210 224
1792 559 1361.895751953125 164 175 203
1793 559 1362.860595703125 167 181 208
1794 559 1363.8255615234375 165 179 205
1795 559 1364.7904052734375 162 178 203
1796 559 1365.7554931640625 161 175 201
1800 559 1367.6856689453125 159 175 201
1801 559 1368.6507568359375 163 179 205
1802 559 1369.615966796875 163 177 204
1807 559 1372.511962890625 165 180 209
1808 559 1373.477294921875 160 177 203
1809 559 1374.4427490234375 158 175 201
1814 559 1376.3739013671875 163 183 208
1815 559 1377.3394775390625 164 186 210
1836 559 1392.7957763671875 164 188 212
1837 559 1393.76220703125 162 188 211
1838 559 1394.7286376953125 167 191 215
1844 559 1398.594970703125 164 188 212
1845 559 1399.561767578125 169 191 215
1880 559 1423.744384765625 173 207 219
784 560 825.1212158203125 164 172 185
973 560 892.8213500976562 171 176 196
977 560 893.7320556640625 177 180 199
987 560 898.2883911132812 183 188 207
991 560 900.1122436523438 186 195 210
995 560 901.9368286132812 193 200 218
1009 560 907.4150390625 202 211 228
1150 560 972.5003662109375 182 183 203
1151 560 973.4269409179688 176 179 198
1154 560 973.4269409179688 191 198 216
1155 560 974.3536376953125 181 188 206
1167 560 980.8445434570312 195 200 219
1183 560 989.2001953125 203 212 227
1184 560 990.1292724609375 200 212 226
1188 560 991.9879150390625 204 213 228
1189 560 992.9174194335938 201 210 225
1192 560 992.9174194335938 200 207 225
1193 560 993.8470458984375 198 207 222
1495 560 1166.5869140625 182 178 201
1541 560 1196.0953369140625 206 216 228
1547 560 1199.9083251953125 203 217 228
1552 560 1202.7689208984375 201 215 226
1553 560 1203.7225341796875 200 214 225
1773 560 1348.658935546875 168 180 206
1774 560 1349.6229248046875 163 177 204
1775 560 1350.5869140625 149 165 191
1776 560 1351.5509033203125 160 174 203
1793 560 1363.1236572265625 167 183 209
1794 560 1364.08837890625 162 179 205
1795 560 1365.0531005859375 163 181 205
1796 560 1366.0179443359375 163 181 205
1801 560 1368.9127197265625 175 192 218
1802 560 1369.877685546875 173 190 216
1803 560 1370.8427734375 171 188 214
1808 560 1373.73828125 167 189 213
1809 560 1374.70361328125 164 188 212
1817 560 1379.53076171875 158 182 208
1836 560 1393.0531005859375 171 207 223
1837 560 1394.0194091796875 170 207 223
1844 560 1398.851318359375 182 215 232
1845 560 1399.81787109375 169 202 219
966 561 890.5054931640625 176 181 201
970 561 892.3250732421875 179 186 204
973 561 893.235107421875 186 191 210
976 561 893.235107421875 193 198 217
977 561 894.1453857421875 189 194 213
987 561 898.6996459960938 198 205 223
1121 561 959.0020751953125 172 174 195
1125 561 960.8501586914062 184 185 206
1129 561 961.7744140625 178 176 197
1130 561 962.6987915039062 173 171 193
1141 561 968.2484130859375 190 191 211
1142 561 969.1738891601562 186 187 207
1146 561 971.0252075195312 205 203 224
1150 561 972.877197265625 194 195 215
1155 561 974.729736328125 196 205 220
1156 561 975.6561889648438 185 190 210
1166 561 980.290771484375 203 210 228
1167 561 981.2181396484375 203 210 228
1456 561 1143.1644287109375 183 178 200
1461 561 1146.0096435546875 182 177 199
1467 561 1148.85546875 183 180 201
1502 561 1170.6998291015625 194 195 215
1503 561 1171.6505126953125 195 196 217
1739 561 1325.8114013671875 172 179 205
1740 561 1326.77392578125 173 184 206
1742 561 1328.698974609375 169 181 207
1749 561 1332.5498046875 167 179 203
1750 561 1333.5126953125 156 168 192
1751 561 1334.4755859375 168 180 204
1767 561 1346.0345458984375 170 180 207
1773 561 1348.925537109375 168 182 208
1774 561 1349.8892822265625 171 187 212
1775 561 1350.85302734375 165 182 208
1776 561 1351.81689453125 160 180 205
1795 561 1365.31640625 174 196 217
1796 561 1366.2811279296875 168 190 211
1801 561 1369.17529296875 179 201 224
1802 561 1370.14013671875 174 199 219
1803 561 1371.10498046875 174 196 219
1808 561 1374.0 174 202 223
1810 561 1375.93017578125 177 204 225
1815 561 1377.8607177734375 177 209 224
1816 561 1378.825927734375 179 210 230
1817 561 1379.791259765625 181 209 230
1836 561 1393.3111572265625 175 211 227
1837 561 1394.2772216796875 173 211 224
711 562 802.0635986328125 75 76 80
740 562 812.6906127929688 147 154 164
955 562 885.4699096679688 187 194 212
956 562 886.3780517578125 182 191 208
966 562 890.9214477539062 192 201 218
969 562 891.8306884765625 192 201 218
976 562 893.6498413085938 196 202 218
1105 562 951.0798950195312 177 182 201
1116 562 956.6154174804688 184 189 208
1117 562 957.5385131835938 177 183 199
1121 562 959.3851928710938 197 200 219
1125 562 961.2325439453125 194 197 216
1126 562 962.1564331054688 182 183 203
1129 562 962.1564331054688 196 199 216
1130 562 963.0804443359375 193 196 215
1141 562 968.6278686523438 200 207 225
1142 562 969.552978515625 206 213 229
1150 562 973.2548217773438 207 213 229
1151 562 974.1806640625 199 206 222
1433 562 1128.326171875 188 185 206
1461 562 1146.3267822265625 193 194 212
1495 562 1167.2091064453125 203 213 225
1502 562 1171.01025390625 201 211 223
1733 562 1322.23486328125 166 178 200
1734 562 1323.1968994140625 168 180 202
1735 562 1324.158935546875 166 176 201
1740 562 1327.0455322265625 173 185 207
1741 562 1328.0079345703125 171 186 207
1742 562 1328.9703369140625 161 175 201
1748 562 1331.857666015625 173 190 210
1750 562 1333.782958984375 173 190 210
1774 562 1350.15625 178 204 221
1775 562 1351.119873046875 173 200 217
1776 562 1352.0836181640625 171 200 216
1801 562 1369.4385986328125 186 215 229
1802 562 1370.4031982421875 183 215 230
1809 562 1375.227294921875 180 213 228
1816 562 1379.08740234375 177 210 225
714 563 805.1832275390625 109 105 102
715 563 806.067626953125 121 120 116
913 563 869.5861206054688 163 166 185
914 563 870.4901123046875 163 169 185
921 563 872.2987060546875 172 177 196
935 563 878.6353149414062 188 193 212
1080 563 939.498291015625 184 185 205
1081 563 940.41796875 181 182 202
1085 563 942.2579345703125 181 182 202
1086 563 943.1781616210938 179 182 201
1089 563 943.1781616210938 182 185 204
1105 563 951.46728515625 191 196 215
1116 563 957.0005493164062 192 198 214
1121 563 959.7692260742188 205 208 227
1122 563 960.6924438476562 206 207 227
1125 563 961.6158447265625 206 212 228
1126 563 962.5393676757812 200 203 222
1130 563 963.4630126953125 204 207 224
1413 563 1117.30078125 185 182 203
1420 563 1121.08203125 183 178 200
1433 563 1128.649169921875 197 198 218
1456 563 1143.8011474609375 201 204 221
1461 563 1146.6446533203125 203 209 223
1462 563 1147.5926513671875 198 204 220
1466 563 1148.540771484375 203 210 226
1694 563 1296.5604248046875 175 182 208
1695 563 1297.520751953125 174 184 209
1700 563 1300.40185546875 178 179 207
1701 563 1301.3623046875 176 180 207
1702 563 1302.3228759765625 174 180 204
1708 563 1305.2049560546875 181 188 214
1709 563 1306.165771484375 180 186 212
1733 563 1322.5081787109375 172 187 208
1734 563 1323.4700927734375 176 191 212
1735 563 1324.4320068359375 176 191 214
1740 563 1327.3179931640625 179 196 216
1741 563 1328.2801513671875 179 197 217
1742 563 1329.2423095703125 178 196 218
1749 563 1333.091552734375 180 203 219
1775 563 1351.387451171875 192 222 233
1776 563 1352.3509521484375 182 211 225
712 564 803.8837280273438 80 80 82
713 564 804.7670288085938 97 96 94
714 564 805.6506958007812 120 116 113
715 564 806.5345458984375 122 121 117
716 564 807.418701171875 132 132 130
717 564 808.3031616210938 136 137 139
913 564 870.0143432617188 177 183 199
914 564 870.9179077148438 182 189 205
921 564 872.7255859375 192 199 215
1056 564 928.8724365234375 169 170 191
1066 564 933.4607543945312 169 170 190
1081 564 940.810791015625 189 192 209
1082 564 941.7303466796875 184 187 204
1085 564 942.6499633789062 186 192 208
1089 564 943.56982421875 195 202 218
1090 564 944.4898071289062 189 196 212
1105 564 951.8555297851562 202 211 226
1106 564 952.7769775390625 198 207 222
1117 564 958.3088989257812 200 207 223
1387 564 1101.579345703125 184 180 203
1401 564 1110.072021484375 193 194 214
1402 564 1111.0162353515625 189 192 211
1407 564 1113.84912109375 193 194 214
1408 564 1114.793701171875 189 187 208
1413 564 1117.6278076171875 186 192 208
1419 564 1120.462890625 193 196 213
1433 564 1128.9730224609375 194 206 218
1434 564 1129.9190673828125 200 210 222
1435 564 1130.8651123046875 197 207 219
1669 564 1279.5694580078125 178 185 204
1670 564 1280.5284423828125 161 167 191
1695 564 1297.800048828125 174 186 208
1702 564 1302.6011962890625 172 183 205
1707 564 1304.5220947265625 180 193 212
1733 564 1322.7823486328125 189 210 227
1734 564 1323.743896484375 185 211 226
1735 564 1324.7056884765625 183 211 225
1736 564 1325.6673583984375 190 213 229
1741 564 1328.552978515625 188 216 230
1743 564 1330.4769287109375 182 208 223
1748 564 1332.4012451171875 193 221 232
1749 564 1333.3634033203125 186 214 225
1750 564 1334.32568359375 181 207 220
1767 564 1346.8399658203125 184 210 223
712 565 804.3531494140625 93 93 95
713 565 805.2359619140625 111 110 108
714 565 806.1190795898438 127 123 120
716 565 807.8861083984375 140 140 138
901 565 865.9312744140625 179 188 203
913 565 870.4435424804688 190 196 212
1047 565 925.605224609375 172 177 196
1056 565 929.271240234375 176 174 196
1065 565 932.9400024414062 190 193 212
1066 565 933.8576049804688 196 197 217
1080 565 940.2855834960938 194 200 216
1081 565 941.2045288085938 202 208 224
1082 565 942.1236572265625 198 201 218
1085 565 943.04296875 201 208 224
1086 565 943.96240234375 201 208 224
1089 565 943.96240234375 202 209 225
1090 565 944.8820190429688 196 203 219
1355 565 1083.0743408203125 184 182 203
1356 565 1084.0152587890625 183 180 201
1369 565 1091.546142578125 191 186 208
1370 565 1092.488037109375 194 191 212
1371 565 1093.429931640625 193 190 211
1380 565 1098.14111328125 194 195 215
1381 565 1099.083740234375 192 193 213
1401 565 1110.4022216796875 204 209 228
1407 565 1114.17822265625 207 210 227
1408 565 1115.1224365234375 206 209 226
1632 565 1255.906005859375 176 181 203
1638 565 1259.73486328125 166 166 192
1644 565 1263.5648193359375 172 178 200
1645 565 1264.5224609375 162 168 190
1652 565 1268.3536376953125 170 172 197
1669 565 1279.853515625 182 190 211
1670 565 1280.812255859375 170 176 200
1696 565 1299.0400390625 191 206 227
1701 565 1301.920166015625 192 203 225
1702 565 1302.8802490234375 197 210 229
1703 565 1303.8404541015625 192 205 224
1708 565 1305.7611083984375 195 217 231
1709 565 1306.721435546875 196 218 232
1710 565 1307.681884765625 195 212 230
713 566 805.7058715820312 97 97 95
861 566 851.9683227539062 167 174 193
872 566 855.5618286132812 178 186 205
1023 566 915.030029296875 175 180 199
1028 566 917.771728515625 171 174 193
1031 566 917.771728515625 171 174 193
1032 566 918.68603515625 168 171 190
1046 566 925.0908203125 190 197 215
1047 566 926.0064697265625 185 192 208
1056 566 929.6708984375 182 187 206
1066 566 934.2553100585938 205 213 226
1330 566 1069.3175048828125 186 187 207
1331 566 1070.2564697265625 187 188 208
1335 566 1071.195556640625 194 195 215
1336 566 1072.134765625 189 190 210
1337 566 1073.0740966796875 182 183 203
1371 566 1093.7659912109375 198 205 221
1375 566 1095.6495361328125 199 208 223
1376 566 1096.591552734375 198 207 222
1380 566 1098.4757080078125 201 210 225
1381 566 1099.41796875 207 216 231
1382 566 1100.3603515625 201 210 225
1386 566 1101.3028564453125 204 213 228
1606 566 1238.98388671875 174 174 198
1607 566 1239.9395751953125 177 177 201
1613 566 1242.806884765625 181 183 204
1614 566 1243.7628173828125 169 167 191
1630 566 1254.28271484375 178 180 205
1631 566 1255.2393798828125 179 185 209
1632 566 1256.1962890625 180 188 211
1638 566 1260.024169921875 176 180 205
1644 566 1263.853271484375 181 194 211
1645 566 1264.8106689453125 181 194 213
1652 566 1268.6409912109375 177 185 206
1670 566 1281.0968017578125 180 197 215
1695 566 1298.36083984375 194 216 230
1696 566 1299.320556640625 192 211 226
1701 566 1302.2000732421875 196 215 229
1702 566 1303.1600341796875 193 211 225
1709 566 1307.0003662109375 193 212 226
1710 566 1307.9605712890625 181 197 213
713 567 806.1767578125 91 91 89
1023 567 915.4370727539062 181 186 205
1024 567 916.350341796875 187 192 211
1028 567 918.1775512695312 190 193 212
1031 567 918.1775512695312 201 204 223
1032 567 919.0913696289062 186 191 210
1046 567 925.493408203125 196 203 219
1047 567 926.4086303710938 191 198 214
1301 567 1053.721923828125 189 187 208
1325 567 1066.8468017578125 192 193 213
1326 567 1067.7850341796875 188 189 209
1330 567 1069.662109375 194 195 213
1370 567 1093.1614990234375 204 214 226
1371 567 1094.102783203125 205 217 229
1381 567 1099.753173828125 204 214 226
1592 567 1229.7283935546875 184 186 207
1593 567 1230.68310546875 189 191 212
1594 567 1231.637939453125 178 180 201
1595 567 1232.5927734375 179 181 202
1600 567 1235.457763671875 188 188 212
1601 567 1236.4129638671875 182 182 206
1607 567 1240.2342529296875 180 180 204
1613 567 1243.1009521484375 178 183 203
1614 567 1244.056640625 182 182 206
1631 567 1255.530517578125 184 195 215
1632 567 1256.4871826171875 182 195 214
1638 567 1260.314208984375 186 197 217
1639 567 1261.271240234375 186 197 217
1644 567 1264.1424560546875 191 208 224
1645 567 1265.099609375 189 206 222
1652 567 1268.9290771484375 195 208 225
1670 567 1281.382080078125 191 210 225
1671 567 1282.3404541015625 193 212 227
833 568 842.9976196289062 160 168 187
987 568 900.3538208007812 163 168 187
988 568 901.2635498046875 165 170 189
1000 568 905.8151245117188 177 184 202
1009 568 909.459716796875 190 199 214
1010 568 910.371337890625 183 192 209
1023 568 915.844970703125 198 207 222
1024 568 916.7578735351562 200 209 224
1025 568 917.6709594726562 195 204 219
1027 568 917.6709594726562 195 207 221
1028 568 918.584228515625 200 209 224
1031 568 918.584228515625 199 206 222
1032 568 919.4976806640625 203 212 227
1288 568 1046.58544921875 184 182 203
1295 568 1050.3280029296875 191 192 210
1296 568 1051.2640380859375 195 198 215
1302 568 1055.009033203125 198 201 218
1306 568 1055.945556640625 191 197 213
1325 568 1067.1929931640625 197 204 220
1326 568 1068.131103515625 199 208 223
1330 568 1070.0074462890625 204 212 225
1331 568 1070.94580078125 201 209 222
1336 568 1072.8228759765625 204 213 228
1547 568 1201.42626953125 188 185 204
1559 568 1208.093505859375 180 177 198
1560 568 1209.0462646484375 182 179 200
1592 568 1230.0263671875 172 183 203
1594 568 1231.9354248046875 184 197 214
1601 568 1236.7093505859375 182 190 211
1607 568 1240.52978515625 192 201 218
1608 568 1241.4849853515625 195 204 219
1613 568 1243.395751953125 190 204 217
1614 568 1244.3511962890625 194 203 220
1615 568 1245.3067626953125 191 198 216
1631 568 1255.8223876953125 194 212 226
1633 568 1257.7352294921875 194 212 226
1639 568 1261.561767578125 198 216 228
1644 568 1264.4322509765625 199 218 232
1645 568 1265.3892822265625 198 217 231
1653 568 1270.1751708984375 192 208 223
813 569 836.3013916015625 170 179 196
966 569 892.5945434570312 168 173 192
987 569 900.7696533203125 187 192 211
988 569 901.6790161132812 185 190 209
992 569 903.4982299804688 186 191 210
999 569 905.3181762695312 194 199 218
1000 569 906.2284545898438 190 197 215
1009 569 909.8713989257812 195 204 219
1256 569 1030.127197265625 185 183 204
1260 569 1031.9931640625 187 188 208
1265 569 1033.8597412109375 187 186 204
1518 569 1183.6591796875 175 178 197
1524 569 1186.5108642578125 176 174 195
1525 569 1187.4615478515625 176 173 194
1540 569 1196.9732666015625 182 179 200
1541 569 1197.9249267578125 181 178 199
1542 569 1198.8765869140625 182 177 199
1548 569 1202.68408203125 177 175 196
1552 569 1204.5882568359375 191 192 212
1553 569 1205.54052734375 193 191 212
1554 569 1206.4927978515625 172 168 191
1558 569 1207.4451904296875 184 180 203
1577 569 1220.78662109375 193 196 215
1578 569 1221.7401123046875 191 192 213
1601 569 1237.0064697265625 201 214 231
1607 569 1240.825927734375 203 217 230
1613 569 1243.6912841796875 205 223 233
1614 569 1244.646484375 200 214 227
935 570 880.3363037109375 167 174 192
943 570 883.0498046875 170 175 194
956 570 888.482421875 170 175 195
966 570 893.01513671875 188 197 214
970 570 894.82958984375 187 194 212
977 570 896.6448364257812 193 202 217
987 570 901.1864624023438 193 202 217
1237 570 1019.30615234375 184 187 206
1238 570 1020.2372436523438 189 192 209
1250 570 1026.758544921875 186 192 208
1251 570 1027.690673828125 194 201 217
1255 570 1029.5552978515625 193 196 211
1256 570 1030.48779296875 192 198 214
1260 570 1032.3531494140625 198 205 221
1261 570 1033.2860107421875 193 200 216
1264 570 1033.2860107421875 194 200 216
1265 570 1034.218994140625 195 201 215
1504 570 1174.47265625 181 178 199
1517 570 1183.020263671875 177 178 199
1518 570 1183.970458984375 175 176 197
1524 570 1186.8214111328125 186 182 205
1539 570 1196.329833984375 185 186 206
1540 570 1197.2811279296875 191 196 215
1541 570 1198.232421875 179 186 204
1547 570 1202.0386962890625 187 196 213
1548 570 1202.990478515625 188 197 212
1553 570 1205.84619140625 190 197 213
1554 570 1206.7982177734375 185 190 210
1560 570 1209.6549072265625 192 204 218
1561 570 1210.6072998046875 191 203 217
1578 570 1222.041748046875 201 213 227
1595 570 1233.4869384765625 199 219 228
914 571 872.6385498046875 169 175 191
935 571 880.7638549804688 168 175 194
943 571 883.47607421875 180 185 204
956 571 888.9060668945312 188 193 213
966 571 893.4366455078125 200 209 224
967 571 894.3433227539062 189 198 213
973 571 896.1573486328125 191 203 219
1210 571 1005.7261352539062 179 182 201
1211 571 1006.6548461914062 182 185 204
1222 571 1012.230224609375 183 184 204
1238 571 1020.602294921875 195 201 217
1250 571 1027.1212158203125 199 206 222
1251 571 1028.052978515625 203 210 226
1252 571 1028.9849853515625 203 209 225
1255 571 1029.9169921875 201 207 221
1260 571 1032.7138671875 206 213 229
1489 571 1165.3004150390625 184 182 203
1490 571 1166.2486572265625 182 179 200
1495 571 1169.0941162109375 186 183 204
1511 571 1179.5338134765625 189 190 211
1512 571 1180.4833984375 188 186 208
1518 571 1184.282470703125 188 190 211
1524 571 1187.1326904296875 192 195 214
1525 571 1188.0828857421875 187 188 208
1540 571 1197.5897216796875 190 202 216
1541 571 1198.540771484375 190 204 217
1553 571 1206.152587890625 205 217 229
1554 571 1207.1043701171875 202 209 227
1559 571 1209.00830078125 201 215 228
913 572 872.1697387695312 165 172 190
914 572 873.071044921875 169 176 194
935 572 881.1923828125 195 204 221
939 572 882.9994506835938 188 195 213
1185 572 994.040771484375 175 173 194
1194 572 997.7479858398438 180 181 201
1210 572 1006.097412109375 194 201 219
1215 572 1008.883056640625 195 200 219
1216 572 1009.8118896484375 187 192 211
1221 572 1011.669921875 186 193 209
1222 572 1012.59912109375 187 192 211
1232 572 1018.1773071289062 202 208 224
1238 572 1020.9681396484375 205 215 227
1455 572 1144.7838134765625 185 180 203
1456 572 1145.7298583984375 187 183 206
1457 572 1146.676025390625 183 178 201
1461 572 1148.5687255859375 186 182 205
1462 572 1149.51513671875 181 178 199
1467 572 1151.4083251953125 188 186 207
1468 572 1152.35498046875 185 182 203
1489 572 1165.6182861328125 188 194 210
1490 572 1166.5662841796875 188 194 210
1496 572 1170.359375 190 197 213
1503 572 1174.1536865234375 189 196 212
1504 572 1175.1025390625 189 196 212
1518 572 1184.5953369140625 210 222 234
1524 572 1187.4447021484375 204 216 228
1525 572 1188.394775390625 203 215 227
1540 572 1197.8990478515625 196 210 221
1541 572 1198.849853515625 197 211 222
741 573 816.8280029296875 141 148 158
913 573 872.6035766601562 183 190 208
918 573 875.3068237304688 188 197 214
922 573 876.2083129882812 188 193 212
1167 573 984.23828125 173 174 195
1168 573 985.1629028320312 177 179 200
1183 573 992.5653686523438 182 184 205
1184 573 993.4913330078125 191 192 212
1185 573 994.4174194335938 187 188 208
1188 573 995.3436889648438 185 188 207
1189 573 996.27001953125 190 193 212
1194 573 998.1232299804688 192 193 213
1210 573 1006.4695434570312 202 211 226
1211 573 1007.3976440429688 199 208 223
1215 573 1009.254150390625 205 212 230
1216 573 1010.1826782226562 202 209 227
1433 573 1130.932373046875 193 188 210
1434 573 1131.876708984375 185 182 203
1435 573 1132.8212890625 189 186 207
1456 573 1146.0540771484375 191 189 211
1457 573 1147.0 187 185 207
1461 573 1148.89208984375 193 191 212
1462 573 1149.8382568359375 197 195 216
1467 573 1151.7308349609375 194 197 214
1468 573 1152.6773681640625 191 192 210
1489 573 1165.93701171875 201 211 223
1490 573 1166.884765625 199 207 220
1496 573 1170.6767578125 201 210 225
1503 573 1174.4700927734375 199 208 223
1504 573 1175.418701171875 199 207 220
713 574 807.59521484375 98 98 96
714 574 808.4757080078125 112 111 107
715 574 809.3565063476562 118 117 113
716 574 810.2376098632812 137 137 139
731 574 814.6471557617188 138 145 155
861 574 854.180908203125 157 164 183
892 574 864.9445190429688 183 190 208
902 574 869.4389038085938 183 190 206
1151 574 977.2307739257812 179 182 201
1155 574 978.1538696289062 179 182 201
1156 574 979.0770874023438 173 174 195
1168 574 985.5440063476562 185 190 209
1184 574 993.8692016601562 199 206 224
1185 574 994.7949829101562 195 202 218
1188 574 995.7208251953125 200 207 223
1189 574 996.6468505859375 197 204 220
1193 574 997.5730590820312 200 207 223
1194 574 998.4993896484375 202 209 225
1401 574 1112.399658203125 189 185 208
1402 574 1113.341796875 185 183 205
1408 574 1117.1114501953125 189 185 208
1434 574 1132.205810546875 191 197 213
1435 574 1133.1500244140625 191 196 215
1456 574 1146.3790283203125 199 208 223
1457 574 1147.32470703125 198 205 221
1461 574 1149.21630859375 202 212 224
1462 574 1150.162109375 204 214 226
1466 574 1151.108154296875 201 211 223
1467 574 1152.05419921875 201 211 223
1468 574 1153.00048828125 204 212 223
1490 574 1167.2039794921875 196 202 216
715 575 809.8302001953125 125 126 121
716 575 810.7108154296875 134 134 136
841 575 847.4727172851562 163 170 189
861 575 854.626220703125 169 176 195
882 575 862.6917114257812 186 193 211
1126 575 965.634521484375 177 180 199
1129 575 965.634521484375 181 182 203
1130 575 966.5552368164062 178 179 199
1142 575 973.004638671875 187 188 208
1143 575 973.9265747070312 178 179 199
1147 575 975.77099609375 189 194 213
1156 575 979.4616088867188 186 191 210
1370 575 1094.859375 185 182 203
1371 575 1095.7991943359375 187 184 205
1376 575 1098.61962890625 182 180 201
1377 575 1099.5599365234375 178 176 197
1381 575 1101.44091796875 189 187 208
1382 575 1102.3814697265625 184 182 203
1387 575 1104.2630615234375 190 187 208
1388 575 1105.2041015625 183 180 201
1402 575 1113.67724609375 197 198 219
1403 575 1114.6192626953125 194 195 216
1408 575 1117.44580078125 194 195 216
1413 575 1120.273193359375 200 205 224
1414 575 1121.2158203125 198 203 223
1419 575 1123.1015625 201 206 225
1434 575 1132.53564453125 202 211 226
1435 575 1133.4796142578125 204 213 228
712 576 807.6663818359375 85 85 85
713 576 808.5455932617188 101 100 98
834 576 846.1376953125 163 170 189
853 576 852.3895874023438 178 186 205
1105 576 954.9937133789062 179 182 201
1106 576 955.912109375 176 179 198
1126 576 966.025390625 189 196 212
1129 576 966.025390625 194 197 216
1130 576 966.9456787109375 192 199 215
1142 576 973.3925170898438 198 205 223
1146 576 975.23583984375 199 208 225
1151 576 978.0020751953125 200 209 226
1327 576 1070.8099365234375 177 175 196
1331 576 1072.68359375 182 185 204
1336 576 1074.5576171875 188 189 209
1337 576 1075.4947509765625 183 181 202
1355 576 1085.8111572265625 189 192 211
1356 576 1086.749755859375 197 198 218
1357 576 1087.6883544921875 192 193 213
1369 576 1094.2618408203125 191 192 212
1370 576 1095.2012939453125 195 198 215
1376 576 1098.96044921875 197 204 220
1377 576 1099.900390625 195 202 218
1381 576 1101.7808837890625 196 203 219
1382 576 1102.72119140625 194 203 218
1386 576 1103.66162109375 201 208 224
1387 576 1104.6021728515625 198 207 222
1388 576 1105.5428466796875 190 197 213
1403 576 1114.9552001953125 198 208 220
1408 576 1117.7808837890625 207 217 229
1419 576 1123.4349365234375 200 210 222
1844 576 1401.97900390625 164 192 214
804 577 836.7944946289062 162 169 185
1081 577 944.3865966796875 172 177 196
1082 577 945.3026123046875 166 171 190
1086 577 947.1351318359375 177 180 199
1089 577 947.1351318359375 177 182 201
1105 577 955.3899536132812 193 196 215
1106 577 956.3079833984375 192 195 214
1117 577 961.8196411132812 195 200 220
1122 577 964.57763671875 196 203 219
1130 577 967.3370361328125 206 213 229
1302 577 1057.128173828125 188 187 205
1307 577 1058.9976806640625 188 186 207
1325 577 1069.2880859375 192 190 211
1326 577 1070.2242431640625 193 191 212
1327 577 1071.16064453125 187 185 206
1331 577 1073.0335693359375 197 200 217
1336 577 1074.906982421875 195 196 216
1337 577 1075.8438720703125 191 192 212
1356 577 1087.09521484375 198 204 220
1357 577 1088.0335693359375 198 204 220
1370 577 1095.544189453125 207 214 230
1371 577 1096.4835205078125 203 210 226
1372 577 1097.4228515625 201 208 224
1381 577 1102.12158203125 205 214 229
1382 577 1103.0616455078125 207 216 231
1387 577 1104.942138671875 203 215 227
1388 577 1105.8824462890625 195 204 219
1803 577 1374.3045654296875 167 183 208
1056 578 932.90087890625 175 176 196
1057 578 933.814208984375 170 171 191
1066 578 937.469482421875 183 186 203
1081 578 944.788330078125 186 193 209
1082 578 945.7039794921875 185 192 208
1086 578 947.5357666015625 188 193 212
1090 578 948.451904296875 196 205 220
1091 578 949.3682250976562 189 198 213
1279 578 1044.4161376953125 181 179 200
1296 578 1053.748046875 194 197 216
