ply
format ascii 1.0
element vertex 1301
property float x
property float y
property float z
property float red
property float green
property float blue
end_header
1102 969 1031.9864501953125 119 120 141
1103 969 1032.752197265625 115 117 138
1104 969 1033.518310546875 112 113 131
1105 969 1034.2847900390625 112 113 131
1106 969 1035.0516357421875 113 114 135
1107 969 1035.8189697265625 122 123 144
1108 969 1036.586669921875 121 123 146
1114 969 1039.6614990234375 115 121 145
1120 969 1041.9716796875 128 138 165
1121 969 1042.7425537109375 119 129 156
1122 969 1043.5137939453125 131 138 164
1146 969 1056.6834716796875 117 117 143
1147 969 1057.4615478515625 105 105 129
1148 969 1058.239990234375 109 111 134
1149 969 1059.0189208984375 111 113 136
1153 969 1060.57763671875 102 100 122
1154 969 1061.357666015625 113 113 137
1155 969 1062.137939453125 95 97 122
1156 969 1062.9185791015625 86 91 113
1157 969 1063.69970703125 91 96 116
1158 969 1064.4810791015625 85 86 106
1161 969 1064.4810791015625 71 73 86
1163 969 1066.0450439453125 57 59 72
1240 969 1126.7164306640625 66 62 53
1247 969 1132.3837890625 61 59 47
1535 969 1321.0072021484375 167 167 191
1822 969 1498.613037109375 159 166 195
1824 969 1500.401611328125 150 164 191
1825 969 1501.296142578125 148 162 191
702 970 838.66796875 89 94 123
715 970 843.651611328125 56 60 87
912 970 934.0883178710938 96 35 40
913 970 934.795166015625 105 43 48
943 970 949.760498046875 105 35 43
1066 970 1013.731689453125 117 35 47
1068 970 1015.2438354492188 120 39 46
1078 970 1019.6832885742188 114 30 43
1081 970 1021.9594116210938 113 29 42
1087 970 1025.0 108 52 63
1088 970 1025.76123046875 98 50 64
1089 970 1026.5228271484375 102 59 76
1092 970 1027.2847900390625 100 64 78
1093 970 1028.047119140625 110 74 88
1094 970 1028.8099365234375 112 78 94
1106 970 1035.6934814453125 125 116 133
1108 970 1037.2275390625 116 113 132
1115 970 1041.0697021484375 115 121 143
1121 970 1043.379638671875 115 126 148
1122 970 1044.150390625 118 126 147
1146 970 1057.3121337890625 108 113 135
1147 970 1058.08984375 112 117 139
1148 970 1058.8677978515625 112 118 140
1149 970 1059.6461181640625 106 114 135
1154 970 1061.9835205078125 92 94 117
1155 970 1062.763427734375 100 104 129
1156 970 1063.5435791015625 99 105 131
1157 970 1064.32421875 89 95 119
1158 970 1065.1051025390625 83 85 106
1163 970 1066.668212890625 58 57 73
1240 970 1127.30517578125 66 62 51
1264 970 1141.087158203125 64 62 49
1646 970 1387.400390625 149 160 192
1649 970 1390.030517578125 154 164 189
1650 970 1390.9075927734375 152 159 187
1654 970 1392.6622314453125 170 178 199
1825 970 1501.7432861328125 156 169 201
1833 970 1506.2164306640625 149 155 191
589 971 800.3905029296875 67 58 51
703 971 840.0726318359375 57 59 82
733 971 852.6206665039062 57 58 62
912 971 934.7962646484375 95 43 47
930 971 944.0195922851562 99 38 45
942 971 949.7394409179688 97 34 42
951 971 954.0508422851562 108 43 51
960 971 959.103759765625 104 39 47
1062 971 1011.369873046875 109 25 38
1072 971 1017.4109497070312 112 26 39
1087 971 1025.0 108 38 49
1100 971 1031.74609375 104 66 79
1104 971 1034.8043212890625 103 82 97
1105 971 1035.5699462890625 96 74 87
1106 971 1036.3358154296875 104 80 96
1146 971 1057.94140625 111 118 137
1147 971 1058.718505859375 110 117 136
1148 971 1059.49609375 105 113 134
1149 971 1060.2740478515625 104 115 135
1150 971 1061.0523681640625 105 116 134
1155 971 1063.389404296875 95 99 124
1156 971 1064.169189453125 88 95 121
1162 971 1066.5106201171875 69 68 86
1163 971 1067.2918701171875 53 52 68
1262 971 1140.0443115234375 93 94 76
1269 971 1144.1092529296875 76 77 59
1280 971 1150.6285400390625 66 64 51
1654 971 1393.14208984375 169 180 202
1655 971 1394.0194091796875 164 175 197
1660 971 1396.652099609375 159 174 195
1832 971 1505.7681884765625 159 173 202
1833 971 1506.662841796875 154 165 197
1850 971 1517.40869140625 152 167 196
628 972 815.6519165039062 65 58 48
733 972 853.393798828125 74 82 85
882 972 927.7413330078125 67 53 52
954 972 956.9059448242188 102 41 46
962 972 959.0714111328125 96 37 43
1083 972 1024.12890625 114 32 44
1095 972 1030.8660888671875 104 41 52
1097 972 1031.74609375 103 43 55
1104 972 1034.8043212890625 93 51 65
1146 972 1058.5711669921875 114 116 137
1147 972 1059.347900390625 104 109 129
1148 972 1060.125 105 111 133
1149 972 1060.9024658203125 106 114 135
1150 972 1061.6802978515625 105 113 132
1154 972 1063.237060546875 95 98 117
1155 972 1064.0159912109375 96 101 121
1156 972 1064.7952880859375 90 95 117
1157 972 1065.574951171875 85 90 112
1158 972 1066.35498046875 80 82 103
1162 972 1067.1353759765625 74 72 86
1261 972 1139.816162109375 62 60 48
1262 972 1140.6279296875 64 65 49
1285 972 1155.2886962890625 102 105 86
1655 972 1394.49951171875 165 177 199
1660 972 1397.13134765625 160 177 197
1666 972 1399.7646484375 157 173 196
1669 972 1402.3994140625 155 151 186
919 973 946.176513671875 83 47 49
1058 973 1011.9337768554688 114 35 41
1059 973 1012.68603515625 118 37 44
1065 973 1014.9453125 110 26 39
1067 973 1016.45361328125 115 34 43
1090 973 1027.0589599609375 107 35 46
1104 973 1035.4482421875 107 49 61
1147 973 1059.977783203125 105 107 130
1151 973 1063.0865478515625 99 102 121
1153 973 1063.0865478515625 96 95 113
1154 973 1063.8646240234375 96 97 118
1155 973 1064.6431884765625 91 92 113
1158 973 1066.9808349609375 87 85 106
1231 973 1119.6231689453125 67 60 52
1278 973 1150.1556396484375 64 65 49
1280 973 1151.7855224609375 76 74 59
1563 973 1338.59033203125 174 174 200
1660 973 1397.6112060546875 169 186 206
1670 973 1403.7557373046875 159 160 191
1866 973 1529.054931640625 145 162 188
1867 973 1529.9522705078125 153 169 195
591 974 801.13232421875 61 54 46
898 974 936.916748046875 60 55 49
1092 974 1029.2293701171875 108 32 42
1101 974 1033.80126953125 114 43 51
1102 974 1034.564697265625 117 50 59
1122 974 1046.0635986328125 100 64 90
1290 974 1158.89306640625 93 87 75
1434 974 1263.2105712890625 85 74 91
1435 974 1264.0609130859375 79 72 90
1684 974 1412.14306640625 163 173 198
1686 974 1413.90234375 152 163 185
1867 974 1530.393798828125 146 166 191
1879 974 1538.4732666015625 152 174 198
1880 974 1539.37158203125 147 169 192
604 975 806.53955078125 61 54 46
630 975 816.4588012695312 68 61 51
889 975 932.6869506835938 57 53 44
899 975 936.916748046875 65 62 53
905 975 939.0388793945312 63 59 50
906 975 939.747314453125 72 68 59
1089 975 1029.1185302734375 108 28 37
1093 975 1030.63916015625 104 27 35
1111 975 1040.5623779296875 110 42 53
1114 975 1042.8619384765625 107 45 60
1116 975 1044.39697265625 104 41 58
1121 975 1045.93359375 92 34 58
1272 975 1146.4388427734375 66 59 51
1432 975 1264.5872802734375 60 52 67
1434 975 1263.7373046875 65 57 72
1435 975 1264.5872802734375 72 68 83
1436 975 1265.4375 64 65 83
1437 975 1266.287841796875 70 72 93
1438 975 1267.1385498046875 87 87 115
1439 975 1267.9893798828125 97 94 123
1688 975 1416.1373291015625 159 161 199
1868 975 1531.732666015625 137 157 184
1879 975 1538.9129638671875 150 171 198
1880 975 1539.81103515625 141 163 187
558 976 789.9088745117188 67 64 55
604 976 807.3568115234375 63 56 46
904 976 939.0377807617188 64 61 52
905 976 939.7451782226562 62 62 50
912 976 943.2899780273438 62 55 45
1008 976 986.6195068359375 71 79 100
1025 976 994.0110473632812 60 68 91
1101 976 1035.0947265625 110 33 43
1105 976 1038.1468505859375 112 37 44
1114 976 1043.503662109375 102 34 45
1123 976 1048.1107177734375 96 34 49
1124 976 1048.8798828125 101 38 49
1128 976 1050.41943359375 93 40 56
1137 976 1055.820068359375 85 47 72
1145 976 1059.6890869140625 96 62 89
1157 976 1067.4554443359375 84 62 83
1256 976 1137.5240478515625 69 62 56
1435 976 1265.1142578125 58 62 73
1436 976 1265.964111328125 66 76 86
1437 976 1266.8140869140625 66 78 92
1438 976 1267.6644287109375 67 78 96
1439 976 1268.514892578125 80 88 109
1441 976 1270.216552734375 98 103 125
1444 976 1271.067626953125 110 116 140
1445 976 1271.9190673828125 116 122 146
1450 976 1273.6224365234375 145 145 171
1601 976 1362.6580810546875 155 160 189
1886 976 1543.8436279296875 155 170 199
1888 976 1545.640625 152 167 196
1893 976 1547.438232421875 145 165 192
1894 976 1548.337158203125 145 165 189
1896 976 1550.135498046875 146 164 188
593 977 803.59814453125 69 65 56
911 977 943.28466796875 68 61 51
920 977 947.5494995117188 55 51 42
953 977 964.793212890625 70 59 53
1012 977 988.7694091796875 93 104 132
1013 977 989.5069580078125 104 115 145
1014 977 990.2449340820312 104 118 145
1019 977 992.4616088867188 101 110 139
1020 977 993.201416015625 99 113 142
1021 977 993.941650390625 91 105 132
1022 977 994.682373046875 86 96 123
1028 977 996.9072265625 61 63 86
1052 977 1009.5905151367188 98 46 50
1057 977 1013.1633911132812 110 29 38
1107 977 1040.3201904296875 111 34 44
1114 977 1044.1461181640625 106 34 45
1120 977 1046.4464111328125 112 36 48
1124 977 1049.5189208984375 106 35 43
1125 977 1050.2880859375 105 32 41
1130 977 1052.5977783203125 101 37 51
1145 977 1060.3216552734375 93 40 66
1147 977 1061.8709716796875 80 35 58
1437 977 1267.3409423828125 65 80 87
1438 977 1268.1907958984375 67 81 92
1439 977 1269.041015625 73 87 100
1444 977 1271.5926513671875 97 108 126
1445 977 1272.4437255859375 97 108 126
1450 977 1274.1463623046875 127 132 154
1451 977 1274.998046875 138 140 161
1452 977 1275.849853515625 139 141 162
1453 977 1276.7020263671875 128 129 150
1601 977 1363.1507568359375 153 160 188
828 978 902.3995971679688 66 57 52
1013 978 990.1823120117188 80 90 117
1014 978 990.9197998046875 81 93 119
1015 978 991.65771484375 81 93 119
1020 978 993.874267578125 69 79 106
1021 978 994.614013671875 59 71 95
1028 978 997.5775756835938 67 72 92
1029 978 998.319580078125 59 65 87
1174 978 1087.202880859375 60 55 49
1198 978 1100.6529541015625 68 61 55
1199 978 1101.447265625 60 53 45
1439 978 1269.567626953125 55 69 72
1440 978 1270.4176025390625 80 95 100
1441 978 1271.267822265625 84 99 104
1442 978 1272.1182861328125 81 94 100
1445 978 1272.968994140625 89 106 113
1446 978 1273.81982421875 103 123 130
1450 978 1274.6708984375 130 144 153
1451 978 1275.522216796875 124 137 146
1452 978 1276.373779296875 139 147 158
1453 978 1277.2254638671875 121 127 141
1720 978 1437.82373046875 146 157 187
1724 978 1438.7064208984375 154 168 194
1725 978 1439.5892333984375 161 173 199
1028 979 998.2484741210938 61 68 87
1127 979 1051.56689453125 101 30 38
1191 979 1098.0892333984375 64 57 51
1193 979 1097.297119140625 62 55 49
1217 979 1113.6103515625 68 61 53
1279 979 1150.6259765625 77 68 61
1446 979 1274.3453369140625 80 102 100
1447 979 1275.196044921875 84 108 108
1448 979 1276.0469970703125 94 115 116
1450 979 1275.196044921875 119 135 135
1451 979 1276.0469970703125 134 148 149
1452 979 1276.898193359375 139 150 154
1453 979 1277.7496337890625 133 142 147
1623 979 1377.198974609375 163 170 196
977 980 977.0327758789062 60 51 44
1116 980 1046.9637451171875 102 35 44
1124 980 1050.7987060546875 102 35 44
1134 980 1056.0516357421875 103 32 40
1174 980 1086.860595703125 65 62 55
1175 980 1087.6474609375 60 57 50
1192 980 1097.11669921875 66 59 53
1206 980 1104.2508544921875 70 61 54
1208 980 1105.8399658203125 64 60 51
1210 980 1107.430419921875 62 55 49
1446 980 1274.871337890625 49 64 61
1451 980 1276.5723876953125 101 110 105
1452 980 1277.4232177734375 119 125 123
1453 980 1278.274169921875 98 104 102
1748 980 1454.6658935546875 154 157 192
825 981 900.5775756835938 70 63 55
951 981 963.9486694335938 63 56 50
1192 981 1097.728515625 62 55 47
1194 981 1099.3106689453125 63 56 50
1198 981 1100.8941650390625 68 59 52
1199 981 1101.6864013671875 69 62 52
1291 981 1157.9434814453125 75 71 62
1450 981 1276.248046875 51 56 52
1452 981 1277.94873046875 66 71 67
1453 981 1278.7994384765625 78 82 81
1751 981 1457.786376953125 153 164 192
1755 981 1459.556396484375 136 155 185
1756 981 1460.4417724609375 149 167 191
1757 981 1461.3271484375 150 166 191
1078 982 1031.8299560546875 64 50 50
1181 982 1092.02978515625 58 53 49
1188 982 1095.1826171875 61 51 49
1201 982 1101.5048828125 62 55 47
1204 982 1103.88134765625 64 50 49
1215 982 1111.02880859375 62 55 47
1230 982 1119.0018310546875 69 60 55
1649 982 1394.3780517578125 158 167 196
1758 982 1462.6773681640625 152 163 191
1766 982 1467.10595703125 143 149 183
1768 982 1468.8785400390625 148 157 190
1776 982 1474.199462890625 156 172 195
584 983 799.8781127929688 60 56 47
1184 983 1092.6463623046875 62 59 52
1187 983 1095.0091552734375 61 51 49
1189 983 1096.5860595703125 76 69 63
1191 983 1096.5860595703125 61 57 48
1193 983 1098.1644287109375 63 59 50
1205 983 1105.28369140625 66 52 51
1209 983 1108.45654296875 62 55 49
1211 983 1108.45654296875 66 57 52
1240 983 1126.0018310546875 60 56 47
1270 983 1145.68798828125 69 62 54
1759 983 1464.0277099609375 156 168 194
1782 983 1478.2100830078125 153 171 195
1175 984 1088.5499267578125 64 61 52
1182 984 1091.69091796875 66 61 55
1190 984 1096.412841796875 65 58 50
1191 984 1097.200927734375 69 65 54
1192 984 1097.989501953125 64 60 51
1197 984 1099.567626953125 73 64 59
1198 984 1100.357177734375 71 64 56
1202 984 1103.5189208984375 65 56 51
1205 984 1105.893798828125 74 63 61
1211 984 1109.06494140625 76 69 63
1213 984 1110.6524658203125 68 59 54
1230 984 1120.205810546875 68 61 55
1249 984 1131.41015625 63 56 48
1263 984 1141.0631103515625 74 67 59
1178 985 1089.1702880859375 62 52 50
1189 985 1096.2413330078125 63 54 49
1194 985 1097.8165283203125 66 59 53
1197 985 1100.1817626953125 71 64 58
1199 985 1101.7603759765625 70 66 55
1221 985 1113.64306640625 69 64 60
1222 985 1114.43798828125 80 73 67
1224 985 1116.0286865234375 80 75 69
1225 985 1116.824462890625 74 69 63
1239 985 1124.0018310546875 74 65 60
1243 985 1127.2000732421875 59 52 46
1247 985 1130.4034423828125 64 57 51
1252 985 1132.809326171875 69 60 53
687 986 840.2077026367188 62 57 51
688 986 840.8115234375 63 59 50
1173 986 1085.8775634765625 65 58 52
1189 986 1094.4993896484375 65 56 51
1190 986 1095.285400390625 61 54 46
1195 986 1099.22021484375 66 59 53
1198 986 1101.585205078125 71 64 54
1205 986 1105.5338134765625 68 61 55
1220 986 1113.456298828125 74 71 64
1223 986 1115.839599609375 71 66 60
1224 986 1116.6346435546875 71 64 56
1225 986 1117.4300537109375 71 64 56
1231 986 1120.614990234375 78 74 65
1240 986 1125.402099609375 70 63 55
1241 986 1126.201171875 70 63 55
1242 986 1127.00048828125 62 55 49
1252 986 1133.4063720703125 69 62 54
1253 986 1134.20849609375 73 66 58
1261 986 1139.028076171875 59 55 44
1266 986 1143.052978515625 79 72 64
1687 986 1419.0792236328125 152 162 189
1688 986 1419.9566650390625 145 152 181
1811 986 1498.247314453125 160 176 199
955 987 965.97412109375 68 57 51
956 987 966.689697265625 65 56 51
1122 987 1055.6651611328125 67 64 59
1124 987 1057.2005615234375 56 53 48
1188 987 1094.3331298828125 63 54 49
1189 987 1095.1182861328125 65 56 51
1190 987 1095.9036865234375 64 57 49
1191 987 1096.6895751953125 63 59 50
1192 987 1097.4757080078125 64 60 51
1199 987 1101.411865234375 72 68 56
1219 987 1113.2713623046875 69 65 56
1220 987 1114.0645751953125 74 71 64
1223 987 1116.4466552734375 73 69 60
1225 987 1118.0362548828125 75 68 60
1230 987 1120.423095703125 80 76 67
1234 987 1121.219482421875 82 75 69
1240 987 1126.0040283203125 67 60 52
1241 987 1126.8026123046875 66 59 51
1243 987 1128.400634765625 64 57 51
1252 987 1134.0040283203125 66 57 50
1266 987 1141.23095703125 71 64 56
1818 987 1503.153076171875 152 170 194
1819 987 1504.043212890625 147 163 188
726 988 857.0927734375 60 55 51
810 988 895.0960693359375 66 55 49
1172 988 1086.3448486328125 69 62 56
1186 988 1093.3846435546875 61 54 48
1190 988 1096.522705078125 68 61 53
1191 988 1097.30810546875 67 60 52
1198 988 1101.240234375 70 61 52
1215 988 1110.71240234375 82 73 64
1216 988 1111.50390625 78 69 60
1217 988 1112.2957763671875 82 76 64
1230 988 1121.028564453125 79 75 66
1240 988 1126.6064453125 78 71 63
1255 988 1135.4034423828125 70 61 54
1256 988 1136.205078125 72 65 57
1267 988 1142.62939453125 68 61 55
1818 988 1503.6090087890625 155 175 199
1819 988 1504.4989013671875 135 153 177
1831 988 1510.7322998046875 147 164 190
666 989 832.2649536132812 76 69 59
1197 989 1101.0704345703125 62 51 47
1210 989 1107.3734130859375 64 55 50
1223 989 1116.07568359375 79 72 62
1225 989 1117.6622314453125 78 71 61
1233 989 1121.634521484375 70 66 57
1234 989 1122.429931640625 66 62 51
1238 989 1125.614990234375 65 54 50
1244 989 1128.80517578125 75 68 60
1247 989 1131.201171875 59 55 46
1251 989 1132.800048828125 79 72 64
1283 989 1152.0850830078125 77 70 62
1287 989 1153.7001953125 66 57 52
1716 989 1438.0823974609375 154 165 193
1718 989 1439.842041015625 154 166 190
1826 989 1509.405517578125 151 162 192
1208 990 1106.410888671875 67 63 52
1209 990 1107.19921875 74 70 59
1210 990 1107.98779296875 62 55 49
1215 990 1111.9361572265625 73 64 55
1229 990 1119.0643310546875 61 52 47
1231 990 1120.652099609375 80 76 67
1235 990 1123.8314208984375 62 58 49
1241 990 1127.0159912109375 80 76 65
1243 990 1128.6102294921875 68 64 53
1245 990 1130.2056884765625 70 66 57
1250 990 1132.6014404296875 79 72 62
1251 990 1133.400634765625 84 77 67
1252 990 1134.2001953125 73 63 54
1253 990 1135.0 63 52 46
1281 990 1151.0625 76 67 60
1282 990 1151.868896484375 70 63 55
1723 990 1442.0770263671875 159 162 193
562 991 792.98486328125 63 59 48
624 991 813.7640991210938 72 60 48
757 991 871.3357543945312 75 56 52
1183 991 1092.2806396484375 62 53 48
1184 991 1093.0626220703125 68 59 54
1191 991 1096.9781494140625 70 66 57
1200 991 1103.092529296875 68 61 55
1206 991 1105.451904296875 71 64 56
1207 991 1106.2391357421875 72 68 57
1232 991 1122.053955078125 71 67 58
1233 991 1122.84814453125 75 73 61
1235 991 1124.4376220703125 62 55 47
1237 991 1126.0284423828125 63 54 49
1238 991 1125.23291015625 69 60 55
1240 991 1126.8243408203125 69 65 56
1241 991 1127.6204833984375 80 76 65
1246 991 1130.0111083984375 65 61 52
1248 991 1131.6063232421875 71 67 56
1251 991 1134.001708984375 81 73 62
1253 991 1133.2030029296875 65 54 48
1255 991 1134.8009033203125 83 76 68
1257 991 1136.4000244140625 83 84 70
1259 991 1138.00048828125 70 66 55
1278 991 1149.2384033203125 74 67 61
1281 991 1151.6544189453125 71 62 57
1282 991 1152.46044921875 77 70 62
1476 991 1296.093017578125 65 61 75
1477 991 1295.2413330078125 78 71 87
1479 991 1296.94482421875 84 75 94
1480 991 1297.7969970703125 98 86 110
1481 991 1298.6492919921875 96 82 108
1854 991 1528.1417236328125 138 149 181
1860 991 1531.713134765625 144 166 187
626 992 815.7138061523438 84 72 58
627 992 816.2756958007812 65 55 43
1168 992 1083.553466796875 57 52 46
1176 992 1087.443359375 60 57 50
1207 992 1106.2391357421875 64 57 49
1214 992 1110.7947998046875 64 55 48
1239 992 1126.6343994140625 87 78 71
1245 992 1129.818115234375 75 66 61
1246 992 1130.6148681640625 75 68 60
1247 992 1131.4119873046875 77 70 62
1264 992 1141.001708984375 72 68 59
1275 992 1147.420166015625 69 69 57
1281 992 1152.2469482421875 66 57 52
1475 992 1295.7657470703125 51 58 66
1477 992 1295.7657470703125 61 63 76
1478 992 1296.6171875 68 67 85
1479 992 1297.46875 72 70 91
1480 992 1298.3204345703125 82 78 101
1482 992 1297.46875 87 78 107
1483 992 1298.3204345703125 94 85 114
1484 992 1299.1724853515625 99 90 121
1485 992 1300.024658203125 109 102 133
1748 992 1458.8824462890625 155 171 197
1854 992 1528.5927734375 152 163 193
1859 992 1531.2703857421875 142 167 189
1869 992 1538.4163818359375 142 156 185
591 993 803.81591796875 71 64 56
998 993 988.8629760742188 67 54 48
1194 993 1099.004150390625 61 51 49
1240 993 1126.4461669921875 79 68 62
1241 993 1127.2408447265625 67 58 51
1247 993 1132.015869140625 66 59 51
1250 993 1132.015869140625 74 66 55
1275 993 1148.015625 69 67 55
1282 993 1152.03515625 71 64 58
1283 993 1152.8399658203125 77 70 62
1290 993 1156.86865234375 76 71 67
1292 993 1158.482177734375 78 74 65
1478 993 1297.141845703125 61 67 81
1479 993 1297.9930419921875 70 73 90
1480 993 1298.844482421875 76 79 96
1483 993 1298.844482421875 84 81 108
1484 993 1299.6961669921875 90 87 116
1485 993 1300.5479736328125 94 91 122
1486 993 1301.4000244140625 94 89 119
1752 993 1462.8824462890625 146 160 187
1755 993 1463.7650146484375 149 158 191
1876 993 1542.4403076171875 143 158 189
1878 993 1544.2286376953125 132 151 181
568 994 795.0 62 53 44
686 994 841.0291137695312 65 54 48
738 994 863.0411376953125 65 57 46
748 994 868.0138549804688 71 56 49
814 994 897.661376953125 76 63 55
958 994 967.3313598632812 63 50 44
960 994 968.7528076171875 68 59 50
1003 994 991.727783203125 67 56 50
1183 994 1092.59326171875 74 67 59
1209 994 1107.4732666015625 63 59 50
1242 994 1128.642578125 68 57 51
1285 994 1153.43359375 81 72 67
1480 994 1299.3690185546875 65 74 81
1481 994 1300.2203369140625 67 76 85
1483 994 1299.3690185546875 71 76 95
1484 994 1300.2203369140625 78 83 103
1485 994 1301.0718994140625 86 91 113
1486 994 1301.923583984375 99 101 122
1487 994 1302.7755126953125 100 102 123
1758 994 1466.883056640625 163 170 198
1894 994 1554.5185546875 138 158 183
718 995 854.6356201171875 68 59 54
906 995 940.7241821289062 76 57 51
934 995 956.0460205078125 79 60 54
983 995 980.8919677734375 65 54 52
1001 995 991.727783203125 67 53 50
1002 995 991.0020141601562 65 52 46
1036 995 1009.2264404296875 64 55 48
1113 995 1051.137451171875 63 58 55
1200 995 1102.597412109375 64 60 51
1201 995 1102.140625 65 61 52
1223 995 1116.75830078125 74 67 61
1231 995 1122.1141357421875 71 62 57
1265 995 1141.201171875 66 62 53
1276 995 1148.40625 65 58 50
1280 995 1150.0108642578125 96 89 83
1281 995 1150.8135986328125 82 75 69
1287 995 1153.2237548828125 90 86 77
1289 995 1154.83203125 69 65 56
1484 995 1300.7451171875 57 65 78
1485 995 1301.5963134765625 71 79 92
1486 995 1302.44775390625 84 87 102
1487 995 1303.29931640625 83 87 99
1505 995 1312.680419921875 136 133 164
1506 995 1313.5345458984375 152 149 176
1507 995 1314.3887939453125 152 152 178
1508 995 1315.2432861328125 141 141 169
1513 995 1317.8079833984375 146 148 173
1514 995 1318.663330078125 143 145 170
1890 995 1554.06884765625 144 157 189
1897 995 1557.650146484375 144 155 187
1898 995 1558.5457763671875 146 155 188
1036 996 1009.9034423828125 68 57 51
1189 996 1096.96484375 71 62 57
1213 996 1109.495361328125 62 53 48
1218 996 1113.429443359375 71 64 56
1232 996 1121.9349365234375 62 55 47
1266 996 1142.6014404296875 66 59 51
1276 996 1149.00390625 75 71 62
1281 996 1151.4100341796875 78 71 63
1286 996 1153.015625 79 76 67
1287 996 1153.81884765625 80 78 66
1288 996 1154.6224365234375 81 77 68
1293 996 1158.6448974609375 69 66 57
1485 996 1302.121337890625 52 57 63
1488 996 1304.675048828125 62 61 67
1506 996 1314.0548095703125 150 150 176
1507 996 1314.90869140625 150 152 177
1508 996 1315.762939453125 146 150 177
1512 996 1317.4718017578125 149 153 180
1513 996 1318.3265380859375 136 140 167
1514 996 1319.1815185546875 130 134 161
1515 996 1320.0367431640625 121 122 150
1520 996 1321.7476806640625 125 127 150
1898 996 1558.99072265625 138 147 180
560 997 793.364990234375 62 55 49
716 997 854.2183837890625 64 53 47
790 997 886.143310546875 74 55 51
983 997 980.1326293945312 79 64 59
985 997 981.5661010742188 63 48 41
1018 997 998.91943359375 64 55 48
1087 997 1036.585205078125 62 57 51
1231 997 1121.14453125 67 60 52
1232 997 1121.9349365234375 63 59 50
1233 997 1122.7257080078125 61 57 48
1235 997 1124.3082275390625 64 57 49
1280 997 1151.205078125 72 65 55
1281 997 1152.0069580078125 64 57 49
1286 997 1153.6116943359375 72 70 58
1287 997 1154.41455078125 68 66 54
1288 997 1155.2177734375 67 63 52
1290 997 1156.824951171875 64 60 51
1489 997 1306.0509033203125 56 57 59
1506 997 1314.5755615234375 155 153 175
1507 997 1315.42919921875 158 160 181
1508 997 1316.2830810546875 153 155 178
1509 997 1317.1370849609375 143 148 170
1512 997 1317.9913330078125 153 157 182
1513 997 1318.845703125 144 148 173
1514 997 1319.7003173828125 133 138 160
1515 997 1320.55517578125 118 123 145
1520 997 1322.2655029296875 127 129 152
1521 997 1323.1209716796875 119 121 146
1522 997 1323.9765625 117 123 147
706 998 849.0053100585938 62 51 45
836 998 909.206787109375 68 49 43
904 998 940.1494750976562 71 52 46
905 998 940.8358154296875 68 49 42
908 998 942.898193359375 68 49 43
921 998 948.42236328125 70 50 43
924 998 950.5030517578125 71 51 42
1034 998 1007.643798828125 71 56 51
1035 998 1008.3773803710938 76 61 54
1088 998 1037.99658203125 63 56 48
1180 998 1089.9564208984375 68 61 55
1202 998 1104.463623046875 72 65 57
1223 998 1117.024658203125 65 56 51
1227 998 1120.1785888671875 66 62 53
1229 998 1120.1785888671875 61 54 48
1249 998 1132.053466796875 65 56 51
1261 998 1139.8179931640625 64 55 48
1506 998 1315.096923828125 126 122 139
1507 998 1315.9501953125 141 140 156
1508 998 1316.8037109375 147 146 162
1512 998 1318.51123046875 149 152 171
1513 998 1319.3653564453125 147 152 171
1514 998 1320.2197265625 140 148 161
1515 998 1321.07421875 130 138 149
1519 998 1321.9288330078125 124 130 146
1520 998 1322.7838134765625 124 129 149
1521 998 1323.638916015625 117 123 145
1522 998 1324.4942626953125 119 130 148
1530 998 1329.63037109375 155 152 181
1535 998 1332.201171875 162 164 189
809 999 895.3937377929688 73 54 50
887 999 932.6918334960938 69 50 44
920 999 948.451904296875 68 47 42
932 999 953.306884765625 76 53 47
983 999 981.5294189453125 68 51 44
1061 999 1023.7431030273438 75 60 55
1068 999 1026.7122802734375 61 50 46
1069 999 1027.45556640625 68 57 53
1077 999 1031.9249267578125 73 62 58
1089 999 1037.1585693359375 62 55 47
1157 999 1075.8963623046875 59 52 46
1168 999 1082.837890625 58 51 45
1188 999 1094.473876953125 62 51 49
1203 999 1102.2762451171875 72 63 56
1258 999 1137.4295654296875 68 64 55
1500 999 1313.061279296875 80 75 81
1505 999 1314.76611328125 102 96 110
1506 999 1315.618896484375 116 112 126
1507 999 1316.4718017578125 107 106 120
1508 999 1317.324951171875 109 111 126
1512 999 1319.0318603515625 115 114 132
1513 999 1319.8856201171875 120 121 139
1514 999 1320.7396240234375 121 127 139
1515 999 1321.59375 120 124 133
1519 999 1322.4481201171875 134 138 149
1520 999 1323.302734375 124 127 144
1521 999 1324.157470703125 117 124 142
1522 999 1325.012451171875 125 139 152
1529 999 1329.2904052734375 141 143 166
1530 999 1330.1466064453125 157 159 184
1531 999 1331.0030517578125 149 148 179
1540 999 1334.4305419921875 165 166 194
1811 999 1502.8389892578125 145 159 188
1812 999 1503.72607421875 150 164 193
1813 999 1504.61328125 144 157 189
1814 999 1505.5006103515625 144 157 191
625 1000 816.2481079101562 66 57 50
626 1000 816.7998657226562 60 51 44
721 1000 856.6083984375 67 52 47
853 1000 916.656982421875 72 52 45
876 1000 927.3467407226562 70 49 44
920 1000 949.1743774414062 75 51 47
933 1000 954.7208862304688 69 48 43
1068 1000 1026.7122802734375 64 53 47
1070 1000 1028.8677978515625 61 48 42
1077 1000 1031.100341796875 77 64 58
1091 1000 1039.3194580078125 62 53 48
1095 1000 1042.3209228515625 60 49 45
1106 1000 1049.0986328125 64 55 48
1120 1000 1055.9095458984375 67 62 56
1121 1000 1056.6683349609375 63 59 50
1132 1000 1061.2294921875 63 56 50
1137 1000 1065.041259765625 57 52 46
1138 1000 1065.8048095703125 62 55 47
1156 1000 1075.7662353515625 67 60 54
1188 1000 1095.101806640625 61 51 49
1227 1000 1119.8321533203125 63 56 48
1284 1000 1153.2025146484375 80 76 65
1287 1000 1154.60205078125 79 70 65
1500 1000 1313.061279296875 62 61 69
1507 1000 1316.4718017578125 83 86 101
1510 1000 1317.8466796875 85 84 102
1512 1000 1319.552978515625 93 88 110
1514 1000 1321.260009765625 102 101 115
1515 1000 1322.1138916015625 97 95 106
1517 1000 1321.260009765625 115 108 116
1519 1000 1322.9678955078125 106 105 113
1520 1000 1323.8221435546875 111 111 123
1523 1000 1326.3861083984375 108 121 129
1529 1000 1329.8074951171875 150 155 174
1530 1000 1330.663330078125 158 165 184
1531 1000 1331.5194091796875 150 156 180
1820 1000 1509.511474609375 142 157 186
626 1001 817.6337890625 72 63 54
627 1001 818.185791015625 68 59 50
719 1001 856.2014770507812 72 58 55
1010 1001 995.8634643554688 67 58 49
1070 1001 1027.381591796875 63 50 44
1077 1001 1031.7679443359375 69 54 49
1103 1001 1045.2353515625 63 54 47
1106 1001 1047.4931640625 67 58 51
1137 1001 1065.6876220703125 65 58 52
1150 1001 1071.8031005859375 57 54 47
1151 1001 1072.5693359375 60 55 49
1155 1001 1075.637939453125 62 53 48
1156 1001 1076.406005859375 62 55 49
1158 1001 1077.943359375 59 56 47
1167 1001 1083.3360595703125 62 59 50
1216 1001 1113.377685546875 64 57 49
1235 1001 1122.8116455078125 71 64 56
1260 1001 1138.6422119140625 74 67 59
1269 1001 1144.2137451171875 71 64 58
1500 1001 1313.5848388671875 60 60 68
1506 1001 1316.141357421875 75 81 93
1520 1001 1324.342041015625 81 81 89
1818 1001 1508.1976318359375 151 178 199
1819 1001 1509.0848388671875 146 168 191
784 1002 884.9163818359375 66 45 40
798 1002 890.6289672851562 68 55 46
857 1002 919.4802856445312 76 59 52
866 1002 922.1387939453125 68 47 44
954 1002 965.9337158203125 73 53 52
1104 1002 1046.6466064453125 64 55 46
1105 1002 1047.398681640625 65 56 49
1151 1002 1073.2120361328125 62 55 49
1156 1002 1077.04638671875 64 57 51
1157 1002 1077.814453125 76 73 64
1163 1002 1080.890380859375 65 60 56
1168 1002 1083.2012939453125 62 55 49
1170 1002 1084.7437744140625 61 54 48
1179 1002 1089.380126953125 65 55 53
1180 1002 1090.1541748046875 65 56 51
1181 1002 1090.928466796875 66 57 52
1182 1002 1091.7032470703125 64 57 51
1195 1002 1097.9144287109375 61 54 48
1199 1002 1101.028564453125 71 62 55
1200 1002 1101.80810546875 69 60 53
1201 1002 1102.587890625 71 62 53
1265 1002 1143.2252197265625 60 51 46
1511 1002 1319.2216796875 59 64 84
1515 1002 1322.634521484375 51 57 69
1518 1002 1322.634521484375 69 67 78
1520 1002 1324.342041015625 70 73 82
857 1003 918.9042358398438 68 49 43
865 1003 922.2201538085938 71 52 48
874 1003 926.8878173828125 75 56 52
893 1003 936.310302734375 69 48 43
917 1003 947.9039916992188 77 54 48
928 1003 953.4159545898438 67 50 42
953 1003 965.9451293945312 67 47 46
954 1003 965.2445068359375 72 54 50
963 1003 971.56884765625 68 49 45
969 1003 973.686279296875 70 52 48
971 1003 975.1005249023438 69 50 44
1017 1003 998.691162109375 62 53 44
1041 1003 1012.51220703125 65 54 48
1059 1003 1022.0645751953125 63 52 48
1080 1003 1032.4359130859375 64 49 46
1081 1003 1033.84814453125 69 55 52
1102 1003 1045.803955078125 77 66 60
1103 1003 1046.5548095703125 71 61 52
1105 1003 1048.0577392578125 73 64 55
1139 1003 1066.981689453125 62 53 48
1140 1003 1067.743896484375 58 49 42
1143 1003 1070.03271484375 69 60 53
1165 1003 1081.529052734375 65 62 55
1174 1003 1086.1514892578125 62 59 52
1180 1003 1090.787353515625 79 70 65
1184 1003 1093.88525390625 70 63 57
1208 1003 1107.1160888671875 84 75 66
1215 1003 1111.0269775390625 68 57 55
1513 1003 1321.4495849609375 59 67 86
1514 1003 1322.302490234375 52 61 76
1515 1003 1323.1556396484375 48 58 68
1525 1003 1329.133544921875 79 88 97
1855 1003 1533.11083984375 145 161 187
868 1004 924.9627075195312 67 46 41
974 1004 976.5147094726562 68 49 43
983 1004 981.4805297851562 65 48 41
1017 1004 999.38232421875 67 59 48
1027 1004 1005.1771240234375 62 49 43
1034 1004 1008.0858154296875 67 54 46
1043 1004 1013.1939697265625 69 59 50
1086 1004 1037.5726318359375 66 55 51
1119 1004 1056.2518310546875 61 50 46
1149 1004 1072.9697265625 64 57 51
1155 1004 1076.02978515625 68 61 53
1159 1004 1079.095947265625 58 54 45
1165 1004 1082.168212890625 73 69 60
1173 1004 1086.01708984375 72 72 62
1184 1004 1092.9683837890625 61 56 50
1186 1004 1094.5172119140625 63 58 52
1192 1004 1096.8431396484375 64 60 51
1198 1004 1101.5048828125 67 58 53
1199 1004 1102.2830810546875 63 56 48
1202 1004 1103.0616455078125 69 62 56
1204 1004 1104.619873046875 71 62 57
1205 1004 1105.3995361328125 70 61 56
1206 1004 1106.179443359375 73 64 57
1513 1004 1321.9720458984375 52 60 71
1855 1004 1533.56640625 140 155 184
572 1005 797.813232421875 61 57 48
761 1005 874.6107788085938 71 56 49
802 1005 893.5781860351562 68 51 44
828 1005 903.7366943359375 67 50 43
912 1005 945.9370727539062 72 52 45
946 1005 962.4868774414062 78 64 53
971 1005 975.1025390625 75 58 50
972 1005 975.8084106445312 81 64 56
1005 1005 992.1819458007812 63 52 46
1015 1005 998.6310424804688 62 51 45
1034 1005 1008.7715454101562 68 55 47
1035 1005 1009.4993896484375 67 54 46
1071 1005 1027.1051025390625 63 49 46
1075 1005 1030.0645751953125 63 52 48
1077 1005 1031.546875 65 54 48
1138 1005 1067.5172119140625 67 60 54
1144 1005 1069.8009033203125 61 54 44
1156 1005 1077.4385986328125 66 59 51
1163 1005 1081.27197265625 71 62 57
1172 1005 1085.8843994140625 68 64 55
1173 1005 1086.654541015625 73 70 61
1174 1005 1087.4249267578125 75 73 61
1177 1005 1089.738525390625 64 59 53
1192 1005 1097.474365234375 64 60 51
1193 1005 1098.25 70 66 57
1202 1005 1103.689208984375 59 54 48
1203 1005 1104.4677734375 65 60 54
1204 1005 1105.24658203125 58 51 45
1205 1005 1106.0257568359375 62 53 48
1208 1005 1106.8052978515625 90 81 72
1210 1005 1108.365478515625 69 62 54
1521 1005 1326.7584228515625 64 68 77
872 1006 924.2970581054688 69 50 44
935 1006 957.6575317382812 72 52 45
964 1006 972.2926635742188 67 50 43
990 1006 985.7322387695312 69 54 47
997 1006 987.1575317382812 63 50 44
1004 1006 992.1618041992188 69 59 50
1034 1006 1008.7715454101562 70 55 50
1085 1006 1036.672607421875 65 54 48
1086 1006 1037.41650390625 62 53 46
1102 1006 1045.6280517578125 72 65 57
1106 1006 1048.626708984375 76 66 57
1145 1006 1071.2105712890625 61 57 46
1166 1006 1081.9130859375 60 53 45
1172 1006 1086.52294921875 72 65 59
1174 1006 1088.0625 63 59 48
1189 1006 1095.7828369140625 71 66 62
1190 1006 1096.556884765625 64 61 54
1191 1006 1097.331298828125 63 60 53
1199 1006 1101.9854736328125 62 53 48
1203 1006 1105.095458984375 67 62 56
1206 1006 1105.8739013671875 69 62 56
1207 1006 1106.652587890625 72 65 57
1208 1006 1107.4317626953125 77 70 62
1209 1006 1108.211181640625 74 67 59
1285 1006 1152.4044189453125 73 66 58
1287 1006 1155.20556640625 71 68 59
1881 1006 1551.4049072265625 145 167 191
764 1007 876.8015747070312 67 50 43
801 1007 892.44384765625 71 52 46
890 1007 935.8899536132812 71 52 46
915 1007 947.3990478515625 75 52 46
933 1007 957.0 72 53 47
976 1007 978.6367797851562 70 51 45
979 1007 978.6367797851562 71 54 47
990 1007 985.01220703125 66 51 44
1004 1007 992.8594970703125 66 55 49
1008 1007 994.292724609375 74 63 57
1023 1007 1001.4879150390625 69 55 52
1085 1007 1037.34130859375 72 62 53
1088 1007 1037.34130859375 92 85 77
1119 1007 1055.3013916015625 68 61 53
1120 1007 1056.054931640625 67 60 52
1152 1007 1075.6700439453125 64 57 51
1157 1007 1077.9615478515625 65 56 49
1158 1007 1078.72607421875 64 53 47
1176 1007 1088.7005615234375 70 65 59
1184 1007 1092.5538330078125 69 62 56
1189 1007 1096.4163818359375 60 55 51
1192 1007 1098.7384033203125 61 57 48
1199 1007 1102.615478515625 66 57 52
1200 1007 1101.83935546875 64 57 51
1201 1007 1104.1689453125 64 57 51
1207 1007 1107.280029296875 64 59 53
1208 1007 1108.0587158203125 67 60 52
1209 1007 1108.837646484375 66 59 51
1210 1007 1109.6170654296875 76 67 60
1215 1007 1111.1768798828125 69 59 57
1216 1007 1111.957275390625 74 67 61
1225 1007 1117.4300537109375 83 76 66
1234 1007 1122.134521484375 66 57 50
1285 1007 1154.213623046875 79 72 64
1528 1007 1332.0679931640625 59 67 69
1887 1007 1555.42529296875 142 157 186
890 1008 934.61865234375 69 48 43
898 1008 939.9957275390625 71 47 43
970 1008 975.1210327148438 68 55 47
971 1008 975.82373046875 61 48 39
997 1008 988.560546875 61 51 42
1007 1008 994.2736206054688 61 52 45
1014 1008 997.8602294921875 71 60 56
1015 1008 998.5789794921875 60 49 43
1017 1008 1000.0180053710938 63 50 44
1091 1008 1040.2408447265625 61 57 48
1129 1008 1061.9952392578125 68 61 53
1130 1008 1062.7515869140625 71 62 55
1131 1008 1064.162109375 64 55 48
1145 1008 1070.9864501953125 65 58 52
1148 1008 1073.2684326171875 70 59 53
1165 1008 1082.4310302734375 75 66 59
1167 1008 1083.9635009765625 67 58 51
1175 1008 1086.26513671875 74 70 61
1181 1008 1090.8785400390625 73 64 59
1185 1008 1093.9615478515625 70 63 57
1199 1008 1101.695068359375 62 53 46
1200 1008 1102.470458984375 59 52 46
1201 1008 1103.24609375 68 61 55
1203 1008 1104.798583984375 67 62 58
1206 1008 1107.130126953125 75 70 64
1207 1008 1107.907958984375 72 67 61
1215 1008 1111.8026123046875 70 60 58
1244 1008 1129.04248046875 66 62 51
1259 1008 1136.93310546875 66 57 52
1284 1008 1152.8126220703125 65 54 50
1889 1008 1557.661376953125 144 168 192
650 1009 828.1690673828125 65 56 47
907 1009 943.4346923828125 72 51 46
945 1009 961.2080688476562 65 46 40
949 1009 963.9756469726562 66 47 43
1003 1009 992.1134033203125 66 55 49
1004 1009 992.8272705078125 70 59 53
1005 1009 993.5416259765625 64 53 47
1031 1009 1007.20703125 66 55 49
1083 1009 1037.1966552734375 60 51 46
1088 1009 1038.680419921875 63 54 45
1089 1009 1039.4229736328125 66 59 49
1131 1009 1064.162109375 65 56 49
1182 1009 1092.28662109375 72 65 59
1198 1009 1101.552490234375 66 55 51
1199 1009 1102.3270263671875 66 57 50
1200 1009 1103.10205078125 63 56 50
1201 1009 1103.877197265625 66 59 53
1208 1009 1106.98193359375 79 72 64
1246 1009 1129.6591796875 75 68 62
1250 1009 1130.4464111328125 65 56 51
1255 1009 1135.6170654296875 65 56 51
1259 1009 1137.545654296875 71 62 57
1260 1009 1138.3360595703125 72 63 58
1534 1009 1336.0037841796875 68 73 79
698 1010 848.260009765625 71 58 50
699 1010 848.8403930664062 68 55 47
825 1010 903.6863403320312 73 56 49
977 1010 979.3554077148438 68 51 44
978 1010 980.0592041015625 63 48 41
985 1010 981.46826171875 78 61 54
1001 1010 991.388916015625 63 48 43
1022 1010 1002.845947265625 82 73 64
1086 1010 1040.0927734375 66 55 49
1111 1010 1051.2744140625 68 61 51
1120 1010 1056.5250244140625 69 60 51
1121 1010 1057.2767333984375 75 66 57
1123 1010 1058.7813720703125 67 58 49
1124 1010 1059.5343017578125 64 53 47
1157 1010 1077.61083984375 66 55 49
1177 1010 1089.0821533203125 61 51 49
1181 1010 1092.1556396484375 74 64 62
1182 1010 1092.9249267578125 70 63 57
1183 1010 1093.6947021484375 69 62 56
1189 1010 1096.777099609375 63 58 52
1198 1010 1102.185546875 72 63 58
1199 1010 1102.9595947265625 71 64 58
1200 1010 1103.734130859375 69 62 54
1202 1010 1105.2841796875 56 51 47
1208 1010 1107.61181640625 80 73 65
1217 1010 1113.0556640625 64 60 51
1228 1010 1119.2984619140625 72 65 57
1241 1010 1126.3480224609375 60 51 46
1252 1010 1132.6375732421875 73 66 60
1253 1010 1133.42529296875 77 70 64
1254 1010 1134.21337890625 71 64 58
1255 1010 1135.001708984375 67 60 54
1260 1010 1138.9486083984375 71 62 57
1264 1010 1142.112060546875 70 63 57
1268 1010 1143.69580078125 67 59 56
1278 1010 1149.2489013671875 70 61 54
1532 1010 1336.524169921875 51 59 62
1536 1010 1338.2320556640625 72 79 87
1537 1010 1339.0863037109375 73 80 90
636 1011 824.9030151367188 75 66 57
662 1011 834.2781372070312 67 61 49
841 1011 910.2510375976562 83 66 58
948 1011 964.7269287109375 70 50 49
968 1011 975.8575439453125 64 46 42
987 1011 983.5878295898438 65 50 43
1006 1011 994.2283325195312 64 54 45
1022 1011 1003.5402221679688 70 64 52
1037 1011 1010.7586059570312 71 58 52
1055 1011 1018.753173828125 66 51 46
1056 1011 1021.6741333007812 67 54 48
1086 1011 1038.539794921875 69 56 50
1111 1011 1051.937744140625 68 59 50
1177 1011 1089.723388671875 62 51 49
1181 1011 1092.7950439453125 64 55 50
1183 1011 1092.7950439453125 74 67 61
1186 1011 1095.102783203125 65 55 53
1189 1011 1097.413818359375 66 61 55
1192 1011 1098.184814453125 59 55 46
1198 1011 1102.819091796875 71 64 58
1199 1011 1103.5927734375 73 66 60
1201 1011 1105.14111328125 68 64 55
1225 1011 1117.5799560546875 65 58 50
1226 1011 1118.3603515625 77 73 64
1227 1011 1119.1412353515625 73 69 58
1228 1011 1119.92236328125 71 64 56
1243 1011 1128.53759765625 62 53 48
1253 1011 1134.04150390625 73 66 60
1254 1011 1134.8291015625 69 62 56
1255 1011 1135.6170654296875 75 68 62
1278 1011 1149.8565673828125 75 62 56
536 1012 786.75537109375 63 60 51
890 1012 934.7684326171875 74 57 49
934 1012 957.883056640625 69 48 43
967 1012 973.7787475585938 69 54 47
986 1012 983.5918579101562 68 53 46
1012 1012 997.0697021484375 64 55 46
1013 1012 997.7840576171875 66 57 48
1036 1012 1010.7249755859375 71 60 54
1055 1012 1019.4375610351562 75 60 57
1056 1012 1020.1666259765625 75 62 56
1082 1012 1035.5814208984375 67 56 50
1129 1012 1062.3563232421875 79 70 61
1143 1012 1069.906982421875 68 57 51
1144 1012 1070.664306640625 68 57 51
1173 1012 1087.30126953125 66 57 50
1185 1012 1094.97216796875 70 63 57
1200 1012 1105.0 67 63 54
1233 1012 1122.890869140625 64 55 50
1235 1012 1124.4554443359375 72 65 57
1242 1012 1128.3726806640625 62 53 48
1252 1012 1133.8712158203125 74 65 60
1271 1012 1144.91748046875 82 75 67
1272 1012 1145.708984375 87 80 72
1274 1012 1147.2928466796875 64 57 51
923 1013 951.0089111328125 83 65 55
931 1013 955.1010131835938 76 57 50
985 1013 983.5979614257812 69 54 47
986 1013 984.3017578125 72 57 50
1010 1013 996.3438110351562 69 56 48
1011 1013 997.056640625 64 54 45
1021 1013 1002.7771606445312 66 57 48
1036 1013 1009.9713134765625 73 63 54
1037 1013 1010.6932983398438 91 81 72
1046 1013 1015.7608032226562 71 58 52
1056 1013 1020.8511352539062 74 61 55
1057 1013 1021.5801391601562 66 53 47
1064 1013 1025.232177734375 66 51 48
1070 1013 1030.3087158203125 61 47 44
1091 1013 1040.624755859375 74 63 59
1112 1013 1052.5189208984375 59 50 41
1142 1013 1069.80419921875 65 54 48
1144 1013 1071.3173828125 64 53 47
1162 1013 1081.19189453125 75 64 60
1166 1013 1081.9542236328125 72 63 56
1172 1013 1086.5362548828125 72 63 58
1191 1013 1098.688720703125 63 60 51
1201 1013 1104.087890625 66 62 53
1228 1013 1119.611572265625 60 51 44
1237 1013 1125.0782470703125 77 68 63
1240 1013 1127.42626953125 64 54 52
1241 1013 1125.860595703125 60 50 48
1243 1013 1127.42626953125 67 60 54
1245 1013 1128.993408203125 71 66 60
1246 1013 1129.7774658203125 72 68 59
1247 1013 1130.561767578125 71 64 56
1252 1013 1134.4888916015625 81 72 67
1262 1013 1140.7896728515625 68 61 55
1268 1013 1143.157958984375 65 55 53
1270 1013 1144.7384033203125 69 59 57
1272 1013 1146.3201904296875 84 77 69
1286 1013 1154.2486572265625 68 53 50
523 1014 784.706298828125 62 58 47
722 1014 858.5109252929688 66 57 48
955 1014 968.968505859375 67 48 44
1010 1014 997.045654296875 68 53 46
1036 1014 1010.6636352539062 66 57 48
1068 1014 1026.6455078125 63 49 46
1148 1014 1072.727783203125 74 65 58
1152 1014 1075.7587890625 66 57 50
1162 1014 1079.556396484375 70 61 54
1184 1014 1093.307861328125 64 57 51
1220 1014 1115.5684814453125 70 61 54
1226 1014 1118.6800537109375 66 62 53
1227 1014 1119.458740234375 73 69 58
1233 1014 1122.577392578125 64 55 50
1237 1014 1123.35791015625 76 69 61
1243 1014 1128.04833984375 66 62 53
1244 1014 1128.831298828125 68 64 55
1245 1014 1129.614501953125 70 66 57
1248 1014 1131.9664306640625 66 59 51
1255 1014 1135.89306640625 73 70 61
1257 1014 1137.466064453125 76 72 63
1266 1014 1142.193115234375 82 78 69
1269 1014 1144.56103515625 61 51 49
1276 1014 1148.5142822265625 74 63 57
1280 1014 1151.6827392578125 80 71 66
1294 1014 1158.8304443359375 64 55 50
512 1015 781.3897705078125 67 63 54
522 1015 785.1177978515625 56 52 43
648 1015 829.0531005859375 68 58 49
676 1015 840.9518432617188 69 59 50
747 1015 870.0 72 57 52
775 1015 880.917724609375 70 53 45
937 1015 960.0713500976562 77 58 51
958 1015 969.691162109375 70 53 46
974 1015 979.4166870117188 63 48 41
1027 1015 1006.322509765625 66 57 48
1046 1015 1014.9664916992188 70 60 51
1050 1015 1017.8629760742188 67 54 48
1067 1015 1026.5968017578125 71 58 52
1068 1015 1027.32763671875 76 62 59
1094 1015 1041.97119140625 67 56 50
1137 1015 1067.342529296875 78 71 61
1146 1015 1071.869384765625 68 59 52
1159 1015 1077.9276123046875 71 62 55
1167 1015 1084.0111083984375 70 63 55
1170 1015 1084.773193359375 75 65 63
1183 1015 1093.1824951171875 65 61 52
1217 1015 1113.869384765625 74 67 59
1221 1015 1115.42138671875 72 61 55
1227 1015 1118.52978515625 72 65 55
1242 1015 1127.8887939453125 66 59 51
1244 1015 1129.453369140625 71 68 59
1245 1015 1130.2362060546875 71 68 59
1246 1015 1131.0194091796875 73 69 60
1247 1015 1131.802978515625 66 62 53
1254 1015 1135.7257080078125 78 75 66
1255 1015 1136.5113525390625 61 61 51
1257 1015 1138.08349609375 71 68 59
1264 1015 1141.2318115234375 69 65 56
1275 1015 1148.3348388671875 76 69 61
1278 1015 1150.70849609375 71 62 57
664 1016 835.93359375 73 65 54
674 1016 840.6598510742188 64 54 45
746 1016 868.4083251953125 68 53 48
773 1016 880.4844970703125 67 52 45
774 1016 881.0958862304688 72 57 50
1026 1016 1004.8706665039062 63 52 46
1049 1016 1017.8275756835938 64 54 45
1057 1016 1022.1805419921875 66 57 48
1066 1016 1026.550048828125 77 66 60
1067 1016 1027.2799072265625 75 65 56
1086 1016 1038.28173828125 64 53 47
1140 1016 1067.342529296875 66 55 49
1148 1016 1074.035888671875 64 55 50
1171 1016 1086.1827392578125 76 67 62
1179 1016 1090.7635498046875 60 52 49
1219 1016 1114.500732421875 66 59 49
1220 1016 1115.2762451171875 72 63 54
1230 1016 1121.4923095703125 65 56 51
1235 1016 1123.0498046875 68 61 53
1237 1016 1124.6087646484375 61 54 46
1240 1016 1126.9498291015625 63 54 49
1243 1016 1129.2940673828125 78 74 65
1244 1016 1130.0760498046875 77 75 63
1245 1016 1130.8585205078125 81 79 67
1249 1016 1132.4244384765625 65 61 52
1250 1016 1133.2078857421875 67 63 54
1251 1016 1133.9915771484375 61 58 49
1252 1016 1134.7757568359375 76 72 61
1261 1016 1139.487548828125 65 62 55
1264 1016 1141.8480224609375 67 63 54
1274 1016 1148.1572265625 72 65 59
1286 1016 1156.0731201171875 63 54 49
1290 1016 1156.866455078125 81 77 68
1291 1016 1157.66015625 87 83 74
1292 1016 1158.4541015625 80 76 67
1293 1016 1159.2484130859375 72 65 57
1544 1016 1345.62548828125 57 58 63
520 1017 784.5514526367188 80 76 65
692 1017 847.68212890625 66 63 46
865 1017 922.6055297851562 69 50 44
866 1017 923.2572631835938 68 51 44
917 1017 947.7979736328125 72 51 46
928 1017 953.9444580078125 74 57 49
983 1017 983.6427001953125 68 50 46
1029 1017 1006.2847290039062 67 54 46
1046 1017 1016.348876953125 67 57 48
1056 1017 1022.141357421875 73 64 55
1058 1017 1023.5941772460938 70 61 52
1062 1017 1024.3212890625 66 55 49
1063 1017 1025.048828125 68 57 51
1068 1017 1028.693359375 65 55 46
1072 1017 1030.154296875 71 60 54
1090 1017 1039.6947021484375 66 52 49
1099 1017 1044.8626708984375 73 64 59
1101 1017 1046.3431396484375 66 59 51
1113 1017 1053.026611328125 61 50 44
1135 1017 1066.49560546875 60 53 45
1148 1017 1073.1802978515625 61 52 47
1161 1017 1080.7479248046875 67 58 53
1208 1017 1108.1741943359375 76 69 63
1210 1017 1109.718017578125 65 58 50
1218 1017 1114.358154296875 78 71 63
1228 1017 1120.5650634765625 71 62 53
1235 1017 1123.677001953125 75 68 60
1238 1017 1126.0146484375 64 57 49
1240 1017 1127.5748291015625 61 52 47
1243 1017 1129.917724609375 76 69 61
1251 1017 1134.6126708984375 64 61 52
1257 1017 1139.3199462890625 66 62 53
1260 1017 1139.3199462890625 62 57 51
1289 1017 1156.682373046875 77 72 66
1293 1017 1159.8560791015625 77 73 62
1296 1017 1160.6502685546875 72 69 62
491 1018 775.928466796875 68 64 52
546 1018 792.022705078125 73 68 62
717 1018 857.0980224609375 63 52 46
719 1018 858.2569580078125 62 53 44
927 1018 955.4747314453125 72 55 48
929 1018 954.6229858398438 66 49 41
982 1018 983.6589965820312 78 63 56
1017 1018 1001.2791748046875 63 48 43
1019 1018 1002.7023315429688 61 48 40
1028 1018 1006.2688598632812 62 52 43
1029 1018 1006.983642578125 60 50 41
1045 1018 1016.3193359375 72 62 53
1046 1018 1017.0408325195312 70 60 51
1048 1018 1018.4851684570312 61 50 44
1055 1018 1022.1041870117188 67 56 50
1058 1018 1022.1041870117188 74 65 56
1061 1018 1024.28125 64 55 48
1067 1018 1027.1903076171875 71 60 54
1089 1018 1039.635009765625 69 56 50
1090 1018 1040.37109375 80 67 61
1100 1018 1046.2752685546875 73 66 58
1101 1018 1047.0152587890625 69 62 54
1108 1018 1049.9794921875 71 58 52
