ply
format ascii 1.0
element vertex 1313
property float x
property float y
property float z
property float red
property float green
property float blue
end_header
544 216 1806.03076171875 191 167 191
545 216 1800.2391357421875 196 171 193
546 216 1794.48193359375 198 173 195
547 216 1788.7587890625 198 173 194
548 216 1783.0693359375 188 163 185
549 216 1777.41357421875 187 161 186
558 216 1722.0635986328125 171 146 176
559 216 1716.7828369140625 174 147 180
560 216 1711.5321044921875 166 139 174
561 216 1706.3111572265625 169 142 177
562 216 1701.119873046875 171 144 179
563 216 1695.9578857421875 162 135 170
566 216 1682.4884033203125 160 125 167
567 216 1677.4249267578125 166 129 170
568 216 1672.3900146484375 156 120 158
569 216 1667.3831787109375 152 118 155
578 216 1604.7872314453125 163 135 173
582 216 1588.328857421875 168 149 179
600 216 1505.0323486328125 160 142 180
601 216 1500.9862060546875 162 144 184
602 216 1496.9603271484375 155 137 177
603 216 1492.95458984375 158 142 181
605 216 1483.569091796875 152 135 177
619 216 1423.67578125 151 134 176
624 216 1404.448486328125 163 152 192
639 216 1356.599609375 162 151 193
640 216 1353.282470703125 160 149 191
641 216 1349.98046875 160 149 191
642 216 1345.5885009765625 164 156 195
813 216 942.5852661132812 198 183 206
917 216 814.929931640625 183 183 211
918 216 813.6873168945312 186 187 215
1648 216 381.33477783203125 184 168 178
1651 216 380.5085144042969 187 171 181
1653 216 378.9591064453125 186 166 177
1671 216 375.1415100097656 167 147 156
1672 216 374.87451171875 153 133 144
1686 216 369.8057556152344 150 122 147
1706 216 366.3116760253906 147 114 135
1708 216 364.13525390625 134 101 122
1730 216 359.87457275390625 130 117 147
1742 216 357.27215576171875 127 113 139
1743 216 357.02972412109375 116 102 128
1744 216 356.6390686035156 120 104 131
1760 216 353.3049621582031 129 123 161
1762 216 352.47369384765625 136 132 167
1789 216 345.00177001953125 129 135 167
1809 216 338.1155700683594 122 138 164
1830 216 333.53521728515625 8 9 14
89 217 2486.88525390625 14 14 16
91 217 2566.67919921875 12 12 14
97 217 2663.576416015625 17 17 19
101 217 2763.396728515625 7 8 10
102 217 2767.398193359375 7 8 10
109 217 2767.20556640625 9 9 11
135 217 2884.21630859375 9 9 7
161 217 3064.668701171875 12 12 14
176 217 3586.54833984375 8 8 10
178 217 3579.852294921875 7 7 9
179 217 3593.366455078125 6 6 8
180 217 3606.864013671875 11 11 13
183 217 3755.1064453125 10 10 12
188 217 3824.921630859375 5 5 7
189 217 3838.740234375 3 3 5
190 217 3838.740234375 11 11 13
191 217 3852.501708984375 8 9 11
192 217 3866.20166015625 6 7 9
193 217 3879.83642578125 4 5 7
194 217 3893.40185546875 5 6 8
195 217 3906.8935546875 11 12 14
196 217 3920.306884765625 10 10 12
199 217 3933.305908203125 10 10 12
220 217 3908.3046875 13 11 14
232 217 4049.16259765625 4 4 6
235 217 3956.425537109375 7 7 9
291 217 4154.20947265625 13 11 14
292 217 4152.25439453125 19 18 23
304 217 4350.2568359375 30 30 38
307 217 4331.9501953125 20 27 37
310 217 4311.24609375 37 45 58
311 217 4303.82958984375 43 51 64
316 217 4040.13427734375 79 78 92
320 217 4000.531494140625 101 94 112
325 217 4061.4169921875 116 103 131
326 217 4049.16259765625 110 95 126
330 217 3813.166259765625 122 109 135
331 217 3802.018798828125 120 107 133
336 217 3854.68798828125 120 107 135
337 217 3841.31591796875 123 110 138
338 217 3827.87744140625 128 118 145
339 217 3814.37744140625 122 112 139
340 217 3800.819091796875 127 117 144
341 217 3787.20703125 129 120 147
342 217 3773.544677734375 132 124 148
343 217 3759.83544921875 116 111 134
344 217 3746.08349609375 134 125 152
345 217 3732.291748046875 129 120 147
356 217 3578.9345703125 129 125 150
357 217 3564.92236328125 122 118 143
358 217 3550.910400390625 126 120 146
359 217 3536.901611328125 117 111 137
362 217 3494.9169921875 116 110 136
363 217 3480.94384765625 126 120 146
365 217 3471.0869140625 131 127 154
366 217 3456.94580078125 130 127 156
367 217 3442.8271484375 122 119 148
368 217 3428.733642578125 116 112 139
369 217 3414.6669921875 126 120 146
370 217 3400.628662109375 126 120 146
371 217 3386.620849609375 133 127 153
372 217 3372.645263671875 133 124 151
374 217 3344.796875 136 128 152
391 217 3088.67041015625 162 157 179
392 217 3076.04345703125 151 143 166
393 217 3063.465087890625 161 151 175
394 217 3050.936767578125 167 157 181
396 217 3026.031494140625 171 161 185
414 217 2714.21728515625 161 152 171
415 217 2703.980224609375 169 160 179
418 217 2682.724365234375 170 161 178
419 217 2672.560546875 170 161 178
420 217 2662.442626953125 169 160 177
421 217 2652.37060546875 165 154 171
439 217 2457.339599609375 176 165 181
463 217 2293.888427734375 181 167 182
464 217 2285.567138671875 183 169 184
465 217 2277.292724609375 183 169 184
466 217 2269.0654296875 182 165 181
467 217 2260.88427734375 185 168 184
480 217 2144.681640625 175 161 174
483 217 2122.575927734375 183 166 184
484 217 2115.288818359375 180 161 180
486 217 2105.218994140625 187 168 187
500 217 2085.420654296875 189 165 187
501 217 2077.953125 179 155 177
502 217 2074.01416015625 184 160 182
529 217 1897.220947265625 169 146 174
530 217 1890.8792724609375 172 145 176
537 217 1847.556884765625 158 131 164
538 217 1841.51708984375 155 128 159
539 217 1835.513427734375 163 134 165
540 217 1829.5460205078125 175 146 177
541 217 1823.6142578125 179 153 182
543 217 1814.10107421875 166 142 168
544 217 1808.2532958984375 165 139 168
545 217 1802.4404296875 173 147 176
546 217 1796.662109375 176 150 177
547 217 1790.9180908203125 180 151 179
548 217 1785.208251953125 184 155 183
549 217 1779.5321044921875 184 155 185
559 217 1718.7470703125 180 154 189
560 217 1713.478271484375 169 143 180
561 217 1708.2396240234375 168 142 181
562 217 1703.0306396484375 165 137 177
563 217 1697.851318359375 167 139 179
564 217 1692.7012939453125 160 133 174
566 217 1684.3197021484375 150 119 163
567 217 1679.23974609375 157 124 169
578 217 1606.5419921875 154 129 169
580 217 1588.6715087890625 155 132 174
581 217 1592.84619140625 160 139 178
582 217 1578.019775390625 161 141 178
584 217 1569.22900390625 165 145 182
585 217 1564.8673095703125 151 133 171
586 217 1560.528076171875 146 128 168
600 217 1506.516845703125 162 150 188
601 217 1502.458740234375 161 149 189
602 217 1498.4210205078125 160 149 189
603 217 1494.4036865234375 160 152 191
605 217 1485.0029296875 150 142 181
639 217 1357.7230224609375 171 165 201
640 217 1354.3974609375 163 157 193
900 217 836.1257934570312 196 198 223
916 217 816.4129638671875 186 188 213
918 217 813.921630859375 188 190 213
957 217 767.3671264648438 204 203 219
963 217 760.5957641601562 200 197 216
964 217 759.5117797851562 201 198 217
1038 217 689.5780029296875 194 172 195
1626 217 386.1536865234375 180 162 174
1650 217 380.756103515625 179 157 169
1671 217 375.1156921386719 135 112 128
1672 217 374.8487243652344 137 114 130
1683 217 370.51617431640625 146 121 143
1709 217 365.5047607421875 145 119 146
1725 217 361.3570556640625 134 124 158
1729 217 360.1208190917969 140 135 167
1742 217 357.2513122558594 138 133 165
1808 217 337.20697021484375 134 152 174
1830 217 333.6592102050781 12 13 18
1837 217 330.9334716796875 7 8 13
88 218 2467.5263671875 12 10 13
91 218 2574.001220703125 5 5 7
94 218 2582.419677734375 19 19 19
97 218 2671.5537109375 5 5 7
102 218 2775.5703125 11 11 13
107 218 2876.91064453125 7 5 8
137 218 2783.30517578125 6 6 8
144 218 2938.669677734375 5 5 7
161 218 3078.428955078125 5 6 8
174 218 3578.9345703125 8 9 11
178 218 3600.308349609375 14 14 16
179 218 3614.056640625 5 5 7
180 218 3627.78955078125 10 10 12
181 218 3641.50439453125 8 8 10
183 218 3778.14794921875 5 5 7
184 218 3792.455810546875 8 8 10
188 218 3849.28076171875 8 9 11
189 218 3863.3662109375 13 14 16
190 218 3863.3662109375 5 6 8
191 218 3877.394775390625 1 5 6
192 218 3891.36328125 4 8 9
193 218 3905.267333984375 5 9 10
194 218 3919.101806640625 8 9 11
195 218 3932.863525390625 10 11 13
196 218 3946.547119140625 8 8 10
198 218 3946.882568359375 9 9 11
199 218 3960.0361328125 11 11 13
200 218 3973.093017578125 16 16 18
224 218 3975.49169921875 8 6 9
233 218 3893.93896484375 10 8 11
255 218 4070.58935546875 11 10 15
293 218 4183.072265625 21 21 23
300 218 4164.02685546875 15 14 19
305 218 4380.220703125 24 29 35
308 218 4360.62890625 32 45 53
310 218 4112.4580078125 40 52 64
312 218 4330.767578125 52 58 72
317 218 4062.880615234375 95 91 106
320 218 4038.5751953125 103 96 114
326 218 4078.095458984375 117 108 135
327 218 4065.4453125 108 99 126
337 218 3906.8935546875 124 114 141
340 218 3824.921630859375 114 106 130
341 218 3811.049560546875 125 120 143
342 218 3797.12841796875 128 124 147
343 218 3783.161865234375 123 119 142
344 218 3769.153076171875 128 124 147
345 218 3755.1064453125 134 130 153
346 218 3741.024658203125 132 127 150
353 218 3641.76806640625 152 149 170
354 218 3627.529052734375 136 131 151
357 218 3584.786865234375 136 131 153
358 218 3570.54052734375 150 142 165
359 218 3556.298828125 145 137 158
360 218 3542.06494140625 143 138 158
361 218 3527.840576171875 143 138 158
362 218 3513.628173828125 144 136 157
363 218 3499.43017578125 137 129 150
366 218 3474.8974609375 143 138 161
367 218 3460.55908203125 135 130 153
368 218 3446.247314453125 140 135 157
369 218 3431.96484375 145 140 162
370 218 3417.71337890625 148 140 163
371 218 3403.494140625 145 135 159
372 218 3389.309814453125 149 137 161
373 218 3375.16064453125 155 143 165
374 218 3361.0498046875 142 130 154
375 218 3346.9775390625 146 134 156
391 218 3101.780029296875 167 158 177
392 218 3088.9921875 163 154 173
393 218 3076.255126953125 169 157 177
394 218 3063.569580078125 174 161 179
398 218 3025.426513671875 172 163 180
399 218 3012.859619140625 169 162 178
401 218 2987.896728515625 165 156 175
415 218 2713.489990234375 164 153 169
417 218 2702.25537109375 167 156 173
418 218 2691.939697265625 168 157 173
419 218 2681.671142578125 171 160 176
420 218 2671.44970703125 174 163 179
421 218 2661.27587890625 178 165 182
440 218 2455.5595703125 177 165 179
462 218 2268.385498046875 176 157 176
463 218 2299.464599609375 187 169 185
464 218 2291.082763671875 188 167 184
465 218 2282.74853515625 186 165 180
466 218 2274.4619140625 185 167 183
467 218 2266.222412109375 184 166 182
478 218 2164.386962890625 189 172 188
480 218 2149.34521484375 182 165 181
487 218 2102.339111328125 178 154 178
488 218 2095.1240234375 174 150 174
500 218 2088.977294921875 174 148 175
510 218 2009.62060546875 174 150 176
518 218 1954.9945068359375 166 142 174
519 218 1948.35400390625 176 151 183
522 218 1928.6739501953125 174 149 181
523 218 1922.1937255859375 171 147 181
530 218 1893.4305419921875 163 135 173
538 218 1843.8734130859375 150 122 163
539 218 1837.8468017578125 150 122 163
540 218 1831.856689453125 153 122 164
541 218 1825.9024658203125 151 123 163
542 218 1822.2366943359375 157 129 167
543 218 1816.3319091796875 157 131 166
544 218 1810.462646484375 152 126 163
545 218 1804.62841796875 155 129 166
546 218 1798.8289794921875 158 132 169
547 218 1793.0643310546875 155 128 163
548 218 1787.3338623046875 167 137 173
559 218 1720.6993408203125 167 145 181
560 218 1715.412841796875 169 147 186
561 218 1710.1563720703125 168 146 185
562 218 1704.929931640625 172 147 187
563 218 1699.7333984375 160 135 175
564 218 1694.5662841796875 161 138 180
567 218 1681.0430908203125 159 133 180
578 218 1608.2874755859375 145 128 172
579 218 1603.6829833984375 148 131 175
582 218 1579.7598876953125 152 135 177
585 218 1566.564208984375 153 138 179
586 218 1562.2109375 162 149 192
600 218 1507.9932861328125 163 159 194
601 218 1503.92333984375 157 153 188
602 218 1499.8739013671875 167 163 200
605 218 1486.4288330078125 165 163 200
641 218 1348.8851318359375 194 194 222
817 218 937.3228759765625 165 146 178
820 218 932.4749755859375 177 162 195
877 218 864.9277954101562 176 171 203
897 218 840.3304443359375 201 203 224
898 218 839.010986328125 203 203 227
899 218 837.6956787109375 203 203 227
900 218 836.3843994140625 200 202 225
919 218 812.9130859375 194 195 215
957 218 767.568603515625 204 201 218
958 218 766.4644165039062 206 203 220
963 218 760.7935791015625 203 199 216
964 218 759.708740234375 203 199 216
1040 218 686.9608764648438 192 172 199
1647 218 381.5834045410156 155 128 145
1648 218 381.2795104980469 162 138 152
1649 218 381.0038146972656 159 132 147
1653 218 379.9049377441406 152 120 141
1666 218 376.4562072753906 151 125 150
1668 218 375.9188537597656 158 130 152
1669 218 375.6507568359375 145 120 141
1686 218 371.3691711425781 148 124 158
1700 218 367.80413818359375 160 149 179
1701 218 367.5472412109375 156 147 176
1702 218 367.2906799316406 154 143 173
1706 218 366.0132751464844 148 131 163
1708 218 365.7368469238281 155 142 172
1709 218 365.4828186035156 138 125 155
1721 218 362.3521728515625 144 134 168
1741 218 357.4729919433594 146 149 180
1780 218 348.285400390625 127 144 174
1804 218 339.1824951171875 153 166 182
1840 218 331.16131591796875 7 8 12
89 219 2500.198974609375 13 11 14
91 219 2581.32373046875 11 11 13
95 219 2654.1376953125 14 14 14
96 219 2668.437255859375 11 11 13
100 219 2804.371826171875 7 7 9
102 219 2783.73681640625 12 12 14
107 219 2885.745361328125 6 6 8
137 219 2793.203857421875 10 10 12
138 219 2804.331787109375 11 11 13
163 219 3115.993408203125 8 8 10
176 219 3606.94970703125 6 7 9
178 219 3620.94677734375 15 15 17
179 219 3634.93359375 7 7 9
180 219 3648.906982421875 12 12 14
183 219 3801.4189453125 5 6 8
184 219 3815.99365234375 5 5 7
188 219 3873.89990234375 7 8 10
190 219 3888.2578125 1 5 6
191 219 3902.560791015625 3 7 8
192 219 3916.80419921875 5 9 10
193 219 3930.9833984375 7 8 10
194 219 3945.09423828125 6 7 9
195 219 3959.132568359375 10 10 12
196 219 3973.093017578125 9 9 11
198 219 3973.663818359375 13 13 15
216 219 4078.095458984375 9 9 11
219 219 3953.2744140625 8 6 9
220 219 4013.994873046875 4 2 3
221 219 3974.120361328125 9 7 8
222 219 4250.72998046875 18 16 19
232 219 4068.750244140625 8 6 9
234 219 3931.867919921875 13 11 12
242 219 4403.4921875 11 9 12
254 219 4178.9501953125 5 4 9
294 219 4214.041015625 13 13 15
295 219 4211.18505859375 13 13 15
299 219 4448.92578125 18 17 22
306 219 4410.1875 31 42 48
308 219 4156.82080078125 32 47 54
311 219 4137.74365234375 41 51 63
313 219 4357.615234375 69 73 84
317 219 4093.607666015625 100 94 108
318 219 4085.51953125 103 99 113
319 219 4077.23193359375 119 117 131
323 219 4132.8544921875 124 114 138
325 219 4228.54736328125 129 124 146
327 219 4094.4814453125 115 111 134
337 219 3932.863525390625 121 111 136
338 219 3919.101806640625 123 113 138
339 219 3905.267333984375 129 121 145
340 219 3891.36328125 118 113 136
341 219 3835.143310546875 130 125 147
342 219 3820.95751953125 129 125 148
354 219 3648.2880859375 154 147 163
358 219 3590.331298828125 157 150 168
359 219 3575.852783203125 149 142 158
360 219 3561.38330078125 166 159 175
361 219 3546.926025390625 151 144 160
362 219 3532.482666015625 145 136 153
365 219 3507.56689453125 156 147 166
366 219 3492.97705078125 144 135 154
367 219 3478.41455078125 147 140 158
368 219 3463.881103515625 151 144 162
369 219 3449.37939453125 154 145 164
370 219 3434.91064453125 150 141 160
371 219 3420.4765625 160 148 168
372 219 3406.07958984375 165 152 170
373 219 3391.720458984375 153 138 157
391 219 3114.9482421875 171 160 176
392 219 3101.997314453125 170 157 174
393 219 3089.099365234375 174 160 177
394 219 3076.255126953125 173 159 176
398 219 3037.540283203125 173 162 178
399 219 3024.822265625 170 159 175
418 219 2701.17919921875 171 158 175
419 219 2690.804931640625 169 156 173
420 219 2680.479248046875 171 157 174
421 219 2670.201904296875 170 156 171
458 219 2312.627685546875 181 160 179
459 219 2304.32421875 173 152 171
463 219 2305.036865234375 172 151 170
464 219 2296.59423828125 179 156 176
465 219 2288.199951171875 182 159 177
466 219 2279.854248046875 180 157 177
467 219 2271.55615234375 178 155 175
478 219 2169.143310546875 171 152 171
481 219 2146.49658203125 178 157 176
487 219 2106.663330078125 166 140 167
488 219 2099.40380859375 165 139 168
498 219 2107.752685546875 173 146 179
500 219 2092.518798828125 154 127 160
506 219 2051.2802734375 174 148 177
518 219 1957.9512939453125 175 149 186
522 219 1931.5125732421875 171 147 183
529 219 1902.3604736328125 164 137 178
538 219 1846.2159423828125 142 116 163
539 219 1840.1663818359375 145 119 166
540 219 1834.153564453125 146 118 166
542 219 1824.4755859375 145 120 162
543 219 1818.549072265625 143 120 162
544 219 1812.6583251953125 141 115 160
545 219 1806.8028564453125 144 118 163
546 219 1800.9827880859375 147 121 166
547 219 1795.1973876953125 143 116 161
548 219 1789.4464111328125 145 116 160
559 219 1722.639892578125 167 149 187
560 219 1717.33544921875 172 156 195
561 219 1712.0614013671875 166 150 189
562 219 1706.817626953125 164 146 186
563 219 1701.6036376953125 164 146 186
564 219 1696.4195556640625 165 147 189
566 219 1687.9478759765625 156 137 182
567 219 1682.8349609375 160 143 187
577 219 1614.66748046875 137 124 167
578 219 1610.0233154296875 147 136 178
585 219 1568.252685546875 160 152 193
599 219 1513.564208984375 172 171 205
600 219 1509.4615478515625 171 172 203
601 219 1505.3797607421875 167 168 199
602 219 1501.318603515625 167 168 199
621 219 1419.03662109375 170 173 208
636 219 1366.68115234375 201 196 218
638 219 1359.9505615234375 192 188 211
640 219 1353.282470703125 199 197 219
641 219 1349.971435546875 194 195 216
854 219 896.7984008789062 178 173 205
856 219 894.1685791015625 185 182 213
858 219 891.5488891601562 189 189 217
859 219 890.07373046875 193 193 221
876 219 866.6303100585938 183 183 211
877 219 865.2328491210938 189 189 215
878 219 863.8397216796875 197 194 221
898 219 839.2701416015625 199 200 220
899 219 837.9535522460938 201 202 222
919 219 813.142822265625 202 203 221
956 219 768.8768310546875 205 198 216
957 219 767.7686157226562 201 194 210
958 219 766.66357421875 203 196 212
960 219 764.4627685546875 201 192 209
962 219 762.0786743164062 205 196 215
963 219 760.9899291992188 203 194 213
964 219 759.9042358398438 202 193 210
1617 219 390.1162414550781 180 156 170
1628 219 387.04901123046875 154 125 147
1646 219 381.8321228027344 157 128 150
1647 219 381.55560302734375 151 122 144
1649 219 380.9759216308594 153 124 146
1654 219 379.6036376953125 154 126 151
1683 219 372.1569519042969 137 118 148
1685 219 371.6077880859375 147 130 164
1686 219 371.3456115722656 149 133 169
1687 219 371.08380126953125 151 137 172
1700 219 367.78179931640625 148 147 179
1701 219 367.5249328613281 144 143 175
1703 219 367.01226806640625 147 146 178
1707 219 365.9690246582031 156 151 183
1709 219 365.4607238769531 157 154 185
1725 219 361.31243896484375 158 163 192
1803 219 339.379150390625 161 174 182
1804 219 339.094482421875 165 175 185
1805 219 338.8985900878906 158 168 178
1808 219 338.2678527832031 159 174 181
89 220 2506.8505859375 8 8 8
96 220 2676.319091796875 2 3 5
100 220 2812.634033203125 4 5 7
101 220 2779.5078125 13 14 16
102 220 2791.896484375 9 10 12
107 220 2894.57373046875 6 6 8
137 220 2929.798828125 11 12 14
162 220 3118.19775390625 11 9 12
163 220 3130.23681640625 11 11 13
164 220 3127.8955078125 9 9 11
176 220 3627.529052734375 11 11 13
179 220 3655.998779296875 3 3 5
180 220 3670.217041015625 16 14 17
188 220 3898.781982421875 4 4 6
189 220 3913.41943359375 9 10 12
190 220 3928.002685546875 6 10 11
191 220 3928.002685546875 3 7 8
192 220 3942.52734375 6 7 9
193 220 3956.98876953125 10 11 13
194 220 3971.3828125 7 7 9
195 220 3985.704345703125 10 8 11
196 220 3999.949462890625 16 14 17
197 220 3986.97216796875 13 13 15
198 220 4000.764404296875 5 5 7
199 220 4014.46533203125 5 5 7
216 220 4107.40576171875 7 7 9
221 220 4002.6298828125 13 11 14
227 220 4062.758544921875 16 16 18
229 220 3914.18310546875 4 2 5
242 220 4081.431396484375 11 9 12
258 220 4259.841796875 17 15 20
295 220 4245.15185546875 15 13 16
296 220 4241.9541015625 9 8 13
301 220 4476.9033203125 14 15 19
308 220 4189.47900390625 33 46 54
309 220 4183.205078125 50 63 71
310 220 4176.69482421875 52 62 72
311 220 4169.9501953125 61 67 79
312 220 4162.97607421875 71 75 84
314 220 4384.35498046875 97 96 104
319 220 4108.0361328125 116 114 125
320 220 4099.36083984375 126 120 134
321 220 4090.4912109375 132 126 140
337 220 3959.132568359375 117 107 131
338 220 3945.09423828125 128 120 143
339 220 3930.9833984375 126 121 143
340 220 3916.80419921875 136 131 153
341 220 3902.560791015625 137 132 152
342 220 3845.03369140625 137 132 154
343 220 3830.533447265625 147 142 162
344 220 3815.99365234375 139 135 152
359 220 3595.563232421875 147 139 154
360 220 3580.8544921875 153 145 158
361 220 3566.159423828125 157 149 162
362 220 3551.48095703125 155 144 158
363 220 3536.821044921875 159 148 164
364 220 3540.8525390625 150 139 155
365 220 3526.004638671875 167 156 172
366 220 3511.184326171875 167 156 172
367 220 3496.3935546875 161 150 166
368 220 3481.635009765625 167 156 172
369 220 3466.90966796875 168 155 172
370 220 3452.22021484375 164 152 166
372 220 3422.954833984375 161 148 165
373 220 3408.38232421875 159 146 163
374 220 3393.85205078125 159 146 163
375 220 3379.36572265625 152 139 156
392 220 3115.058349609375 177 160 176
393 220 3101.997314453125 179 161 175
394 220 3088.9921875 176 158 172
416 220 2722.07275390625 172 155 171
418 220 2710.44189453125 168 151 167
419 220 2699.9609375 156 139 157
420 220 2689.529541015625 163 144 163
421 220 2679.1484375 172 153 172
441 220 2460.775390625 182 161 178
463 220 2310.605224609375 159 135 159
464 220 2302.101318359375 166 142 166
465 220 2293.646728515625 169 145 169
478 220 2173.89404296875 169 145 171
480 220 2158.654296875 175 151 175
481 220 2151.099609375 180 156 180
486 220 2118.326171875 172 147 176
487 220 2110.97998046875 163 138 167
489 220 2096.41357421875 168 143 173
498 220 2111.356689453125 144 116 156
500 220 2096.044921875 148 120 160
505 220 2061.94677734375 152 124 164
508 220 2039.9583740234375 165 137 175
510 220 2016.030029296875 159 131 171
517 220 1967.6363525390625 158 132 171
518 220 1960.893798828125 162 135 176
519 220 1954.1929931640625 167 140 181
529 220 1904.908447265625 170 148 187
530 220 1898.489501953125 168 147 186
537 220 1854.6539306640625 149 127 174
538 220 1848.54443359375 153 131 178
539 220 1842.4720458984375 145 126 172
540 220 1836.436767578125 145 123 170
541 220 1832.684814453125 143 124 170
542 220 1826.700439453125 144 125 171
543 220 1820.752197265625 142 125 170
544 220 1814.840087890625 147 127 176
545 220 1808.9637451171875 130 110 159
546 220 1803.1226806640625 138 114 164
547 220 1797.316650390625 142 115 166
548 220 1791.5455322265625 149 122 173
559 220 1724.568359375 162 152 189
560 220 1719.24609375 163 152 192
561 220 1713.9544677734375 166 155 195
562 220 1708.6932373046875 162 151 191
563 220 1703.4622802734375 168 157 197
566 220 1689.744384765625 161 148 191
580 220 1602.5062255859375 159 153 191
581 220 1599.59423828125 160 154 192
584 220 1585.9429931640625 159 155 192
585 220 1581.4410400390625 157 153 190
600 220 1510.921630859375 189 189 215
601 220 1506.8280029296875 183 183 209
602 220 1502.7550048828125 179 180 208
603 220 1498.7027587890625 184 185 213
622 220 1413.100830078125 178 179 207
623 220 1409.515869140625 180 182 207
637 220 1364.4202880859375 193 188 208
638 220 1361.0546875 192 187 207
639 220 1357.7047119140625 197 194 215
853 220 898.6464233398438 178 178 206
859 220 890.411376953125 191 191 215
877 220 865.5358276367188 202 203 224
899 220 838.20947265625 201 202 220
916 220 817.11181640625 203 202 218
958 220 766.8612060546875 193 180 198
959 220 765.7583618164062 190 177 195
960 220 764.6587524414062 194 181 199
963 220 761.184814453125 190 177 195
1035 220 691.6363525390625 178 158 185
1044 220 683.5513916015625 180 177 208
1612 220 391.53619384765625 159 134 155
1613 220 391.2454833984375 164 136 158
1626 220 386.0415344238281 157 130 163
1627 220 385.75994873046875 151 121 155
1646 220 381.8040466308594 166 136 162
1647 220 381.52764892578125 148 118 146
1648 220 381.22344970703125 155 124 155
1649 220 380.9478759765625 145 114 146
1669 220 375.5982971191406 151 144 178
1686 220 371.3218688964844 149 145 180
1687 220 371.06011962890625 150 146 183
1688 220 370.79876708984375 153 152 186
1707 220 365.9466552734375 146 149 180
1725 220 361.2898864746094 157 164 183
1727 220 360.79461669921875 165 176 194
1803 220 339.2904357910156 162 169 175
1808 220 337.1637268066406 163 170 176
1809 220 336.9481201171875 156 165 170
1838 220 331.26947021484375 9 10 14
1841 220 330.8533020019531 9 10 14
96 221 2684.200927734375 13 14 16
100 221 2820.887939453125 9 10 12
101 221 2787.551513671875 2 3 5
102 221 2800.048583984375 12 13 15
107 221 2903.394287109375 8 8 10
164 221 3142.3037109375 13 13 15
175 221 3633.7978515625 15 15 17
176 221 3648.2880859375 7 7 9
179 221 3677.253173828125 12 12 14
180 221 3691.72216796875 11 9 12
181 221 3772.664794921875 13 11 14
187 221 3908.95654296875 11 11 13
188 221 3923.9296875 9 9 11
189 221 3938.853515625 6 6 8
190 221 3953.723876953125 6 7 9
192 221 3968.536865234375 6 7 9
193 221 3983.28759765625 9 9 11
194 221 3997.97119140625 12 10 13
195 221 4012.583740234375 11 9 12
197 221 4014.112548828125 6 4 7
198 221 4028.189697265625 4 4 6
199 221 4042.17529296875 13 13 15
216 221 4137.09912109375 11 11 13
221 221 4031.5234375 8 6 9
233 221 4052.669921875 12 10 13
234 221 4281.9521484375 16 14 17
240 221 4269.8623046875 13 8 12
297 221 4272.83984375 16 15 20
302 221 4509.58056640625 19 20 25
303 221 4503.75244140625 26 27 32
309 221 4216.22119140625 45 55 65
310 221 4209.5556640625 52 60 71
311 221 4202.65087890625 60 64 75
321 221 4121.34423828125 131 123 134
332 221 3893.079833984375 128 125 144
339 221 3956.98876953125 140 136 153
340 221 3942.52734375 147 143 160
342 221 3913.41943359375 149 142 160
345 221 3869.35986328125 151 145 159
358 221 3630.398193359375 157 147 158
359 221 3615.431396484375 158 148 159
360 221 3600.478271484375 168 158 169
361 221 3585.54150390625 156 146 157
362 221 3570.62353515625 162 152 163
363 221 3555.726318359375 167 155 167
364 221 3559.658935546875 165 153 165
365 221 3544.57373046875 163 151 163
366 221 3529.51904296875 160 148 160
368 221 3499.50830078125 165 151 164
369 221 3484.556396484375 169 155 168
370 221 3469.642333984375 169 155 168
371 221 3454.767822265625 160 146 159
372 221 3439.935302734375 165 151 164
373 221 3425.14599609375 168 154 167
392 221 3114.9482421875 173 152 167
394 221 3101.780029296875 175 155 167
414 221 2752.861083984375 171 150 165
415 221 2742.182373046875 171 150 167
416 221 2731.552734375 171 150 167
418 221 2719.727294921875 174 155 174
419 221 2709.138427734375 169 150 169
420 221 2698.60107421875 167 145 166
421 221 2688.114990234375 164 142 163
422 221 2677.680419921875 162 139 159
441 221 2467.8818359375 179 156 176
463 221 2316.168701171875 162 139 168
464 221 2307.603515625 152 129 158
465 221 2299.088623046875 151 126 156
466 221 2290.623291015625 146 119 150
480 221 2163.29931640625 183 158 188
483 221 2140.619140625 165 142 170
486 221 2122.68017578125 162 137 169
487 221 2115.288818359375 162 137 169
488 221 2129.13037109375 159 135 167
500 221 2099.555419921875 141 115 160
505 221 2065.25634765625 150 123 166
529 221 1907.441162109375 167 151 190
530 221 1900.9967041015625 163 149 185
537 221 1856.9912109375 164 147 192
538 221 1850.8587646484375 152 136 181
539 221 1844.763671875 147 131 176
540 221 1838.7059326171875 156 140 185
542 221 1828.9111328125 145 132 178
543 221 1822.9415283203125 145 132 178
544 221 1817.0081787109375 127 115 163
545 221 1811.1107177734375 133 119 168
546 221 1805.2489013671875 142 124 174
547 221 1799.42236328125 143 123 174
548 221 1793.631103515625 150 130 181
557 221 1743.0386962890625 166 156 193
559 221 1726.4844970703125 163 157 193
560 221 1721.14453125 162 156 192
561 221 1715.83544921875 168 162 198
562 221 1710.556884765625 175 169 205
566 221 1691.529052734375 171 163 200
568 221 1681.267822265625 173 172 206
578 221 1613.46630859375 173 169 202
579 221 1608.8175048828125 163 159 192
581 221 1601.25732421875 167 163 196
582 221 1596.6683349609375 168 164 197
583 221 1580.4632568359375 176 172 205
584 221 1576.02197265625 170 169 201
600 221 1512.373291015625 191 189 211
601 221 1508.2679443359375 189 190 211
602 221 1504.183349609375 186 186 210
637 221 1365.526123046875 199 192 210
638 221 1362.15234375 193 185 206
639 221 1358.7943115234375 195 191 208
854 221 897.4973754882812 196 196 220
858 221 891.8881225585938 190 191 212
859 221 890.411376953125 201 202 222
875 221 866.4716796875 206 207 225
876 221 867.2372436523438 204 205 225
877 221 865.8368530273438 205 204 222
880 221 861.3652954101562 206 205 223
919 221 813.5971069335938 202 198 213
957 221 768.1641235351562 178 161 180
1033 221 693.6192016601562 175 159 186
1035 221 691.7164306640625 183 170 198
1044 221 683.5513916015625 183 184 214
1617 221 390.0574951171875 167 137 165
1646 221 381.77581787109375 161 136 168
1647 221 381.49945068359375 152 127 159
1648 221 381.1951599121094 152 126 163
1668 221 374.65875244140625 153 156 189
1669 221 375.57177734375 154 157 190
1688 221 370.77490234375 159 164 196
1701 221 367.4797668457031 171 178 206
1702 221 367.2233581542969 165 172 200
1703 221 366.9673156738281 174 181 209
1704 221 366.71160888671875 175 182 210
1741 221 358.1385498046875 186 196 208
1745 221 357.1664123535156 175 182 198
1758 221 353.2647705078125 171 180 189
1779 221 344.7984619140625 167 176 185
1831 221 333.42828369140625 8 11 16
1843 221 330.107666015625 10 11 15
78 222 2092.518798828125 13 13 15
93 222 2602.22802734375 6 7 9
99 222 2816.324951171875 7 8 10
100 222 2820.887939453125 6 7 9
101 222 2795.585693359375 13 14 16
102 222 2808.191650390625 9 9 11
106 222 2898.685791015625 4 5 7
107 222 2912.206298828125 14 15 17
139 222 2976.844970703125 10 10 12
151 222 2952.572509765625 4 4 6
161 222 3134.262451171875 9 7 10
176 222 3669.228271484375 8 6 9
178 222 3698.69873046875 4 4 6
179 222 3698.69873046875 9 9 11
181 222 3795.237548828125 7 5 8
182 222 3810.747802734375 8 8 10
186 222 3918.773681640625 14 14 16
187 222 3934.08154296875 5 5 7
188 222 3949.34619140625 11 9 12
189 222 3964.562744140625 11 11 13
190 222 3979.727783203125 15 15 17
192 222 3994.8359375 9 9 11
193 222 4009.883056640625 17 15 18
194 222 4024.864013671875 10 8 11
196 222 4027.11962890625 10 10 12
197 222 4041.57470703125 12 12 14
198 222 4055.943359375 12 12 14
199 222 4070.221435546875 13 13 15
221 222 4060.807861328125 11 9 12
223 222 4082.42138671875 14 9 15
227 222 4406.75830078125 14 14 16
235 222 4327.22509765625 6 4 7
237 222 4256.33056640625 15 10 14
244 222 4396.0546875 4 4 6
245 222 4406.75830078125 12 10 13
253 222 4596.9833984375 14 14 16
298 222 4303.82958984375 18 18 20
299 222 4299.6298828125 16 16 18
302 222 4548.28173828125 12 11 17
303 222 4542.30224609375 25 24 30
304 222 4536.0068359375 27 26 34
310 222 4242.92626953125 50 56 68
311 222 4235.85693359375 62 66 75
312 222 4228.54736328125 74 74 82
317 222 4161.9267578125 124 111 118
340 222 3968.536865234375 149 146 157
342 222 3938.853515625 158 152 164
343 222 3923.9296875 154 146 159
344 222 3908.95654296875 154 146 159
345 222 3893.93896484375 158 152 164
346 222 3878.880615234375 146 143 154
358 222 3650.67578125 154 142 152
359 222 3635.457763671875 163 151 161
360 222 3620.256103515625 166 154 164
361 222 3605.07275390625 160 149 157
362 222 3589.910400390625 170 159 167
364 222 3578.600830078125 173 157 168
365 222 3563.275146484375 172 156 167
366 222 3547.981689453125 168 152 163
368 222 3517.50146484375 165 149 160
369 222 3502.318603515625 174 158 169
370 222 3487.176513671875 173 157 168
371 222 3472.076416015625 173 157 168
372 222 3457.020751953125 174 158 169
373 222 3442.0107421875 171 155 166
374 222 3427.04833984375 162 148 161
393 222 3114.618408203125 174 151 167
414 222 2762.5908203125 171 146 165
415 222 2751.799072265625 169 144 165
416 222 2741.0576171875 171 148 168
418 222 2729.03466796875 164 142 163
419 222 2718.33740234375 158 136 159
420 222 2707.69287109375 160 138 161
421 222 2697.100830078125 158 134 158
422 222 2686.5615234375 160 134 161
439 222 2493.62841796875 163 138 160
440 222 2484.287109375 175 150 172
441 222 2474.994873046875 176 151 173
461 222 2339.134521484375 155 131 167
464 222 2313.1005859375 142 120 158
465 222 2304.524658203125 138 116 154
466 222 2295.99951171875 141 114 155
477 222 2205.484130859375 150 124 161
483 222 2145.1123046875 158 137 170
484 222 2137.591796875 165 141 177
488 222 2133.339599609375 166 144 180
504 222 2076.0458984375 149 127 174
505 222 2068.549560546875 146 124 170
518 222 1966.736083984375 154 132 179
519 222 1959.9754638671875 159 137 184
520 222 1953.2568359375 154 132 178
522 222 1939.9447021484375 161 144 188
524 222 1926.7969970703125 162 150 190
528 222 1916.46923828125 166 154 192
529 222 1909.958740234375 174 164 199
537 222 1859.314208984375 166 154 194
538 222 1853.1585693359375 162 150 190
539 222 1847.040771484375 161 148 191
540 222 1840.9605712890625 159 146 189
542 222 1831.10791015625 156 148 189
543 222 1825.1165771484375 146 139 181
544 222 1819.162109375 143 137 181
545 222 1813.2435302734375 140 132 179
546 222 1807.3612060546875 151 139 185
547 222 1801.5142822265625 151 138 184
548 222 1795.7027587890625 145 133 179
559 222 1728.3883056640625 181 178 209
560 222 1723.03076171875 175 172 203
561 222 1717.7041015625 187 184 213
562 222 1712.4083251953125 185 180 210
563 222 1707.143310546875 184 180 207
566 222 1693.3016357421875 181 174 205
568 222 1683.0084228515625 179 176 205
579 222 1601.952392578125 177 173 200
581 222 1602.9107666015625 176 172 199
584 222 1573.2657470703125 173 170 197
599 222 1517.9549560546875 195 192 213
600 222 1513.816650390625 191 188 207
604 222 1492.0533447265625 191 188 209
605 222 1488.05078125 196 193 214
637 222 1366.6253662109375 197 188 205
638 222 1363.243408203125 195 186 205
639 222 1359.8773193359375 191 184 202
640 222 1356.5269775390625 196 189 207
857 222 893.70849609375 196 195 213
859 222 890.7467651367188 199 198 216
876 222 867.53759765625 206 205 223
898 222 840.035888671875 210 206 223
919 222 813.8215942382812 193 182 198
922 222 809.8865966796875 188 175 192
963 222 760.482177734375 174 150 172
964 222 759.3970336914062 170 145 167
1032 222 694.5347290039062 180 175 205
1033 222 693.697509765625 181 176 206
1035 222 691.8731079101562 173 170 197
1041 222 679.0430908203125 184 184 210
1610 222 392.08892822265625 167 142 172
1611 222 391.47637939453125 165 141 173
1615 222 390.3166809082031 167 141 176
1616 222 390.0278015136719 158 131 164
1646 222 381.74737548828125 168 156 192
1647 222 381.4710388183594 173 161 197
1652 222 379.79327392578125 160 153 187
1668 222 374.6247863769531 168 173 203
1670 222 375.2507629394531 172 177 207
1686 222 369.6027526855469 163 166 197
1689 222 370.4899597167969 166 173 201
1702 222 367.2005615234375 189 197 216
1704 222 366.68890380859375 189 198 215
1741 222 358.11676025390625 183 190 196
1812 222 337.33575439453125 147 146 151
1828 222 332.7135314941406 16 17 22
1845 222 329.8800048828125 5 9 12
78 223 2096.447021484375 11 11 13
88 223 2516.5947265625 9 7 10
89 223 2526.7763671875 7 5 8
93 223 2609.730224609375 4 5 7
95 223 2677.19140625 13 13 15
99 223 2824.447509765625 7 8 10
100 223 2829.132568359375 7 8 10
101 223 2803.60986328125 5 6 8
102 223 2816.324951171875 9 9 11
106 223 2907.365478515625 6 7 9
120 223 2898.995849609375 10 10 12
133 223 2926.510009765625 12 12 12
138 223 2976.26953125 8 8 10
139 223 2988.576416015625 7 7 9
142 223 2839.5302734375 7 7 9
151 223 2964.681640625 6 6 8
161 223 3148.41796875 9 7 10
174 223 3681.1494140625 11 9 12
178 223 3720.3369140625 2 2 4
180 223 3802.218505859375 16 14 17
186 223 3943.865966796875 12 12 14
187 223 3959.470947265625 9 9 11
188 223 3975.034423828125 15 13 16
189 223 3990.551513671875 11 9 12
190 223 4006.017578125 11 11 13
191 223 4021.42822265625 6 6 8
192 223 4021.42822265625 13 11 14
193 223 4036.779052734375 8 6 9
194 223 4052.064453125 10 8 11
195 223 4039.774169921875 9 7 10
196 223 4054.60888671875 15 15 17
197 223 4069.36279296875 14 14 16
198 223 4084.031494140625 7 7 9
217 223 4032.5966796875 10 10 12
219 223 4270.00390625 13 11 14
224 223 4348.6103515625 9 7 10
235 223 4361.08154296875 12 10 13
300 223 4330.32421875 15 16 20
309 223 4283.810546875 52 58 70
312 223 4262.09423828125 69 68 76
313 223 4254.36767578125 83 76 84
318 223 4184.404296875 135 118 124
342 223 3964.562744140625 154 144 155
343 223 3949.34619140625 144 134 145
344 223 3934.08154296875 144 134 145
345 223 3918.773681640625 157 149 160
346 223 3903.426513671875 156 148 159
355 223 3717.622802734375 162 149 158
360 223 3640.1875 163 150 159
361 223 3624.753173828125 166 153 162
362 223 3609.342529296875 168 155 164
364 223 3597.679443359375 171 154 164
365 223 3582.108154296875 173 153 164
366 223 3566.572265625 172 155 165
367 223 3551.073486328125 167 150 160
368 223 3535.614501953125 166 149 159
369 223 3520.19677734375 163 146 156
370 223 3504.822509765625 173 156 166
371 223 3489.4931640625 169 151 163
372 223 3474.2109375 157 139 151
373 223 3458.976806640625 175 157 169
374 223 3443.792724609375 167 149 161
394 223 3114.06884765625 163 140 158
395 223 3100.695068359375 162 139 157
396 223 3087.384765625 168 145 161
415 223 2761.44091796875 149 124 146
418 223 2738.36376953125 152 128 154
419 223 2727.556884765625 146 123 149
420 223 2716.803955078125 149 126 154
438 223 2510.383544921875 158 132 161
440 223 2491.4873046875 171 145 172
444 223 2461.18212890625 167 143 169
445 223 2451.93115234375 164 139 168
462 223 2336.0205078125 151 130 169
465 223 2309.95458984375 152 131 174
466 223 2301.369384765625 140 117 163
477 223 2210.2421875 145 120 160
484 223 2142.0302734375 150 130 167
488 223 2137.538330078125 150 133 169
500 223 2088.977294921875 143 132 175
504 223 2055.83349609375 141 124 169
508 223 2049.523681640625 149 136 180
517 223 1976.4686279296875 151 135 180
520 223 1956.0966796875 159 142 187
529 223 1912.4608154296875 172 165 198
530 223 1905.965576171875 167 162 194
537 223 1861.6220703125 172 162 197
538 223 1855.44384765625 175 165 200
539 223 1849.303466796875 171 161 196
540 223 1843.2008056640625 173 163 200
542 223 1833.2899169921875 172 166 202
543 223 1827.27734375 169 165 200
544 223 1821.3016357421875 154 152 191
545 223 1815.3623046875 163 158 198
546 223 1809.4593505859375 169 163 201
547 223 1803.5921630859375 174 166 205
548 223 1797.760498046875 172 164 203
559 223 1730.279541015625 181 178 205
560 223 1724.904296875 178 175 202
561 223 1719.5604248046875 183 181 205
562 223 1714.24755859375 183 179 202
563 223 1708.965576171875 184 180 203
564 223 1703.7139892578125 191 187 212
565 223 1700.269775390625 186 182 207
582 223 1583.8353271484375 189 184 206
583 223 1579.3656005859375 192 189 210
598 223 1519.4014892578125 184 176 197
599 223 1515.2513427734375 192 185 203
600 223 1511.1224365234375 194 187 205
601 223 1507.0146484375 192 185 203
602 223 1502.9278564453125 186 182 199
604 223 1493.4390869140625 200 193 211
637 223 1367.718017578125 198 187 204
638 223 1364.3280029296875 200 189 206
639 223 1360.953857421875 196 185 202
640 223 1357.595458984375 200 189 206
819 223 952.6161499023438 188 186 210
857 223 894.0451049804688 205 202 221
916 223 817.7945556640625 189 180 199
943 223 782.6350708007812 191 172 192
959 223 765.23779296875 172 152 179
964 223 759.5859375 167 141 166
1031 223 695.6094360351562 194 196 221
1034 223 692.8609619140625 189 193 218
1039 223 680.9302368164062 189 191 214
1040 223 680.0593872070312 193 193 217
1041 223 679.1907348632812 199 199 223
1611 223 391.737060546875 162 146 183
1612 223 391.44610595703125 163 149 185
1613 223 391.1556396484375 164 149 188
1616 223 390.2867126464844 171 151 188
1625 223 387.790283203125 153 148 188
1631 223 386.08538818359375 163 163 201
1646 223 381.71875 174 170 205
1647 223 381.4424743652344 175 171 206
1648 223 381.1379089355469 172 170 207
1665 223 376.591796875 182 189 217
1681 223 372.5875549316406 181 189 212
1683 223 370.05072021484375 183 191 214
1700 223 367.4339294433594 185 193 204
1705 223 364.37408447265625 182 190 201
1758 223 351.7987976074219 180 181 185
1781 223 344.3028564453125 157 162 166
1803 223 338.1343994140625 139 128 134
1806 223 338.5914611816406 136 125 129
1827 223 332.9029541015625 16 14 19
89 224 2533.406005859375 13 11 12
93 224 2617.232177734375 14 14 16
95 224 2684.86962890625 8 8 10
100 224 2837.36669921875 7 8 10
101 224 2811.62255859375 5 6 8
105 224 2902.37060546875 11 12 14
106 224 2916.033203125 5 6 8
131 224 2932.777587890625 14 14 16
142 224 2850.127685546875 11 11 11
173 224 3686.60693359375 13 13 15
178 224 3742.16796875 10 11 13
180 224 3824.921630859375 12 12 14
184 224 3937.2978515625 8 8 10
186 224 3969.219482421875 8 8 10
187 224 3985.12841796875 8 8 10
188 224 4000.997314453125 12 12 14
189 224 4016.822021484375 16 16 18
190 224 4032.5966796875 12 10 13
191 224 4048.317138671875 15 13 16
192 224 4048.317138671875 8 8 10
193 224 4063.979248046875 11 11 13
194 224 4052.064453125 6 6 8
195 224 4067.280029296875 16 16 18
196 224 4082.42138671875 11 11 13
197 224 4097.48193359375 6 6 8
198 224 4112.4580078125 14 12 15
219 224 4302.2353515625 10 10 12
223 224 4369.70849609375 13 9 10
236 224 4408.00439453125 17 15 18
239 224 4131.95556640625 21 19 22
301 224 4361.08154296875 18 17 22
302 224 4355.8095703125 15 14 20
312 224 4296.1630859375 100 97 104
314 224 4280.0966796875 115 100 107
333 224 4085.51953125 156 146 155
336 224 4095.10595703125 156 144 154
338 224 4036.779052734375 152 139 149
342 224 3990.551513671875 154 141 151
343 224 3975.034423828125 159 145 158
344 224 3959.470947265625 148 136 148
346 224 3928.22314453125 150 138 148
347 224 3912.547607421875 152 140 150
356 224 3723.244140625 160 140 152
358 224 3691.72216796875 158 138 150
359 224 3675.987548828125 165 145 157
360 224 3660.2734375 156 139 149
361 224 3644.583251953125 161 144 154
362 224 3628.919189453125 166 146 157
364 224 3616.894287109375 171 149 161
365 224 3601.072998046875 174 152 164
366 224 3585.2900390625 169 147 159
367 224 3569.54736328125 173 151 163
368 224 3553.8466796875 164 142 155
369 224 3538.1904296875 162 142 154
370 224 3522.580322265625 169 149 161
371 224 3507.017822265625 169 148 163
372 224 3491.5048828125 157 136 151
373 224 3476.043212890625 173 150 166
394 224 3126.83837890625 150 125 147
395 224 3113.300048828125 150 125 147
414 224 2771.107421875 158 132 157
415 224 2760.13916015625 169 143 170
417 224 2758.686767578125 158 133 162
418 224 2747.713623046875 150 125 155
419 224 2736.796142578125 147 123 155
462 224 2341.630126953125 145 127 167
465 224 2315.3779296875 133 116 160
466 224 2306.732177734375 135 118 162
484 224 2146.460693359375 153 135 175
498 224 2125.609619140625 154 148 186
504 224 2059.24072265625 155 147 186
506 224 2067.568115234375 163 156 197
510 224 2028.6700439453125 157 146 186
517 224 1979.3828125 154 146 185
529 224 1914.947265625 175 169 197
530 224 1908.4267578125 175 169 197
538 224 1857.7139892578125 179 173 201
539 224 1851.55126953125 183 177 205
540 224 1845.4263916015625 182 175 206
542 224 1835.4571533203125 181 176 206
543 224 1829.4234619140625 180 177 206
544 224 1823.4266357421875 184 181 210
545 224 1817.466796875 174 169 199
546 224 1811.5430908203125 176 169 200
547 224 1805.65576171875 174 167 198
548 224 1799.80419921875 180 174 202
559 224 1732.1580810546875 184 180 205
560 224 1726.765380859375 179 175 198
563 224 1710.7755126953125 189 184 204
564 224 1705.50732421875 187 182 204
565 224 1702.0340576171875 186 181 203
566 224 1696.810546875 189 181 204
568 224 1686.45361328125 189 184 204
578 224 1613.864013671875 193 185 206
579 224 1609.1964111328125 193 185 206
582 224 1585.5078125 197 190 208
583 224 1581.02392578125 198 191 209
584 224 1576.5634765625 199 192 210
585 224 1572.12646484375 200 193 211
598 224 1520.8394775390625 195 186 205
599 224 1516.6776123046875 191 182 199
600 224 1512.5369873046875 195 186 203
601 224 1508.4178466796875 195 186 203
602 224 1504.319580078125 190 181 198
604 224 1494.816650390625 201 190 207
622 224 1418.0966796875 198 187 204
623 224 1414.4735107421875 196 187 204
637 224 1368.8038330078125 198 183 202
638 224 1365.4056396484375 200 185 204
639 224 1362.023681640625 195 182 200
640 224 1358.657470703125 196 183 201
857 224 894.37939453125 204 200 217
875 224 867.4140625 207 200 216
877 224 866.7274169921875 203 196 214
879 224 862.1488647460938 204 195 212
899 224 839.2142333984375 202 185 204
943 224 782.8435668945312 170 142 167
959 224 765.427734375 169 156 184
1030 224 696.6072387695312 201 203 226
1031 224 695.6859130859375 201 203 226
1034 224 692.9365844726562 201 206 226
1041 224 679.3372802734375 206 207 228
1043 224 677.749755859375 202 203 224
1610 224 390.52410888671875 166 155 195
1611 224 390.2753601074219 164 156 195
1613 224 389.7004089355469 159 155 192
1617 224 389.67950439453125 164 156 195
1625 224 387.7613220214844 170 170 206
1626 224 385.88922119140625 174 170 207
1649 224 380.8336486816406 184 185 215
1650 224 380.5587158203125 180 184 211
1652 224 380.0100402832031 179 183 210
1666 224 376.29559326171875 184 191 210
1669 224 375.49114990234375 186 193 209
1681 224 372.56298828125 190 197 215
1727 224 360.10211181640625 174 181 187
1760 224 352.8812255859375 174 168 172
1830 224 332.7312316894531 15 16 20
88 225 2529.68701171875 14 12 13
92 225 2613.9765625 15 15 15
93 225 2624.733642578125 5 5 5
99 225 2840.655517578125 10 11 13
100 225 2845.58935546875 9 10 12
105 225 2910.904052734375 6 7 9
106 225 2924.68798828125 6 7 9
122 225 2888.942138671875 12 12 14
142 225 2860.75927734375 9 9 9
161 225 3176.964111328125 11 11 13
175 225 3717.622802734375 7 7 9
180 225 3847.828857421875 9 9 11
186 225 3994.8359375 5 5 7
187 225 4011.056640625 8 8 10
188 225 4027.238525390625 9 9 11
189 225 4043.37744140625 19 19 21
190 225 4059.46826171875 14 12 15
191 225 4075.5068359375 12 10 13
194 225 4079.5771484375 12 12 14
195 225 4095.10595703125 8 8 10
196 225 4110.56103515625 8 8 10
197 225 4125.9365234375 9 9 11
198 225 4141.2275390625 20 18 21
218 225 4417.22705078125 10 10 12
308 225 4360.62890625 47 51 60
314 225 4569.484375 120 104 107
315 225 4305.71630859375 126 107 109
318 225 4278.5283203125 144 128 129
327 225 4417.22705078125 152 139 146
330 225 4376.86083984375 159 143 153
337 225 4107.40576171875 157 141 152
343 225 4000.997314453125 150 134 147
344 225 3985.12841796875 152 135 151
358 225 3760.609130859375 156 133 149
359 225 3744.553955078125 158 135 151
367 225 3588.14404296875 155 132 148
368 225 3572.197998046875 169 146 162
370 225 3540.448974609375 158 137 154
371 225 3524.6494140625 157 136 153
372 225 3508.902587890625 153 130 148
393 225 3153.426513671875 142 118 144
394 225 3139.65380859375 146 121 150
395 225 3125.948974609375 148 123 152
414 225 2780.7978515625 151 127 153
415 225 2769.714599609375 161 135 164
418 225 2746.0546875 148 124 158
420 225 2724.166748046875 141 122 154
421 225 2713.308349609375 143 126 158
458 225 2347.986328125 160 146 182
465 225 2320.794189453125 144 132 172
466 225 2312.087890625 139 127 167
467 225 2303.434326171875 142 131 171
468 225 2294.833251953125 141 130 170
479 225 2189.65185546875 144 132 172
480 225 2181.8056640625 143 131 171
481 225 2174.006103515625 142 130 170
483 225 2158.544677734375 151 139 179
484 225 2150.88232421875 146 131 170
487 225 2153.657470703125 151 141 176
488 225 2145.903076171875 157 150 184
498 225 2129.13037109375 153 149 182
501 225 2105.660400390625 176 172 207
504 225 2062.633056640625 165 159 193
517 225 1982.2813720703125 160 154 188
538 225 1859.969482421875 193 188 211
539 225 1853.7840576171875 191 183 207
540 225 1847.63720703125 189 184 207
541 225 1841.5283203125 194 189 212
542 225 1837.6097412109375 194 190 213
543 225 1831.5548095703125 181 177 200
