ply
format ascii 1.0
element vertex 1353
property float x
property float y
property float z
property float red
property float green
property float blue
end_header
291 75 1186.323974609375 18 16 21
292 75 1186.1068115234375 11 10 15
297 75 1182.5880126953125 14 13 18
298 75 1182.16650390625 22 21 27
299 75 1181.728271484375 9 8 14
300 75 1181.2733154296875 20 18 23
301 75 1180.8017578125 17 15 20
302 75 1180.313720703125 16 14 19
303 75 1179.80908203125 24 22 27
304 75 1179.2882080078125 20 19 24
305 75 1178.750732421875 18 17 22
306 75 1178.197021484375 15 14 19
307 75 1177.627197265625 18 19 23
308 75 1177.041259765625 21 20 28
309 75 1176.4390869140625 23 23 33
311 75 1174.537109375 21 25 36
312 75 1173.87158203125 27 36 45
313 75 1173.190185546875 42 52 61
314 75 1172.4932861328125 44 53 62
315 75 1171.7808837890625 58 68 78
316 75 1171.0531005859375 62 77 84
317 75 1170.31005859375 63 78 83
318 75 1169.5516357421875 89 99 100
319 75 1168.778076171875 101 105 106
320 75 1167.989501953125 110 105 109
321 75 1167.1859130859375 127 121 123
322 75 1166.3675537109375 132 126 128
323 75 1165.5343017578125 136 130 134
324 75 1164.6865234375 146 139 146
325 75 1163.82421875 133 126 134
327 75 1164.6865234375 157 149 160
329 75 1162.9473876953125 134 128 140
330 75 1162.05615234375 145 139 153
331 75 1161.1507568359375 139 135 149
334 75 1157.3885498046875 135 129 143
368 75 1122.4383544921875 133 124 143
369 75 1121.24072265625 128 119 140
371 75 1118.8131103515625 125 113 137
372 75 1117.5833740234375 132 120 144
373 75 1116.3431396484375 125 111 136
374 75 1115.0926513671875 133 119 144
375 75 1113.83203125 118 106 130
376 75 1112.561279296875 128 116 140
377 75 1111.2806396484375 128 116 140
378 75 1109.9901123046875 123 111 133
380 75 1099.9638671875 127 115 139
384 75 1105.737060546875 124 108 134
403 75 1040.354736328125 139 128 158
404 75 1038.98046875 140 127 157
407 75 1034.8204345703125 122 111 143
409 75 1035.160888671875 130 116 151
410 75 1033.7379150390625 123 112 146
411 75 1032.309326171875 121 112 143
413 75 1029.4359130859375 117 108 139
414 75 1027.9912109375 121 110 144
415 75 1026.541259765625 114 104 139
416 75 1025.086181640625 117 107 144
431 75 994.1845092773438 134 124 161
432 75 992.6996459960938 132 124 161
433 75 991.2113037109375 128 122 158
434 75 989.719482421875 129 125 160
438 75 983.719970703125 143 132 166
441 75 981.8919677734375 143 136 169
467 75 946.1103515625 146 143 172
468 75 944.4619140625 146 143 174
523 75 885.4017333984375 176 174 195
524 75 883.6478271484375 178 176 197
525 75 881.8970947265625 168 166 187
546 75 855.49267578125 179 176 193
552 75 846.7113647460938 188 185 202
553 75 844.9948120117188 180 177 194
568 75 815.5425415039062 185 180 200
569 75 813.9185180664062 184 179 199
570 75 812.298583984375 184 179 199
625 75 715.4942016601562 179 169 194
1624 75 229.25355529785156 141 121 156
1625 75 229.0841064453125 151 131 168
1636 75 227.16690063476562 162 147 186
1637 75 227.00059509277344 165 153 191
1639 75 226.668701171875 154 142 180
1659 75 223.4246063232422 149 143 181
1660 75 223.2670135498047 133 129 166
1661 75 223.1063232421875 146 142 179
1662 75 222.94589233398438 155 151 188
1663 75 222.7856903076172 156 152 189
1678 75 220.39996337890625 132 135 168
1679 75 220.24339294433594 143 146 179
1680 75 220.08705139160156 145 148 181
1700 75 217.19386291503906 161 168 196
1701 75 217.0417938232422 160 170 197
1702 75 216.8899383544922 154 163 192
1703 75 216.73828125 144 154 181
1717 75 214.6315155029297 149 159 186
1718 75 214.48301696777344 153 160 188
1719 75 214.334716796875 163 170 198
1720 75 214.18663024902344 152 158 184
1721 75 214.0387420654297 163 170 196
1726 75 213.30430603027344 172 180 201
1783 75 206.08721923828125 157 164 180
1788 75 205.40379333496094 158 164 180
1794 75 204.18600463867188 153 161 174
1795 75 204.0515899658203 159 167 180
1814 75 201.66336059570312 157 156 174
1817 75 201.27052307128906 136 141 161
1826 75 200.0976104736328 48 49 54
1844 75 198.0519561767578 9 7 10
1847 75 197.67306518554688 22 17 21
1848 75 197.5470733642578 5 3 6
1849 75 197.42124938964844 16 14 17
1850 75 197.29559326171875 10 10 12
1857 75 196.41868591308594 13 13 15
1861 75 195.18186950683594 1 2 4
1862 75 195.0590362548828 12 12 12
1863 75 194.93637084960938 17 17 17
1865 75 194.6923828125 3 3 5
1866 75 194.57015991210938 4 5 9
120 76 1024.12890625 10 10 10
125 76 1020.1607055664062 2 4 3
127 76 1041.49951171875 0 0 2
154 76 1145.4407958984375 6 6 6
165 76 1156.4537353515625 3 5 4
180 76 1116.1839599609375 8 10 9
192 76 1096.3865966796875 7 9 8
204 76 1083.7415771484375 15 15 15
205 76 1084.8228759765625 6 6 6
206 76 1085.894287109375 14 12 13
208 76 1084.3448486328125 12 10 11
209 76 1085.3748779296875 12 10 11
211 76 1086.3944091796875 10 10 10
212 76 1087.4034423828125 9 9 11
223 76 1111.052001953125 19 19 19
224 76 1111.93115234375 6 4 5
225 76 1112.7979736328125 13 11 12
226 76 1113.6522216796875 8 8 8
227 76 1114.4942626953125 9 9 9
228 76 1119.59375 5 6 8
243 76 1175.3643798828125 6 7 9
246 76 1172.38427734375 6 10 11
247 76 1172.8289794921875 9 10 12
248 76 1173.2574462890625 5 6 8
249 76 1173.6695556640625 18 18 20
251 76 1174.4443359375 7 8 10
255 76 1173.6695556640625 8 9 11
256 76 1187.507568359375 7 8 12
258 76 1188.275146484375 10 11 13
259 76 1188.63330078125 9 10 12
265 76 1191.079345703125 5 6 8
267 76 1191.2640380859375 5 9 12
272 76 1191.9244384765625 7 6 11
274 76 1192.0654296875 10 11 13
275 76 1192.109619140625 12 13 15
276 76 1192.135986328125 13 12 17
277 76 1192.144775390625 15 14 19
278 76 1192.135986328125 24 22 25
279 76 1192.0654296875 4 2 5
280 76 1192.0037841796875 13 12 17
281 76 1191.9244384765625 10 9 14
282 76 1191.8275146484375 12 11 16
283 76 1191.7130126953125 10 9 14
285 76 1191.8275146484375 16 15 20
286 76 1191.7130126953125 9 9 11
287 76 1191.5809326171875 16 16 18
288 76 1191.43115234375 12 13 17
289 76 1191.2640380859375 13 14 18
290 76 1191.079345703125 7 6 12
291 76 1190.877197265625 12 11 17
292 76 1190.657470703125 10 9 14
293 76 1190.4202880859375 12 11 16
296 76 1189.298095703125 15 14 19
298 76 1186.6717529296875 10 9 14
299 76 1186.228515625 13 12 17
300 76 1185.768310546875 23 20 27
301 76 1185.291259765625 16 13 20
302 76 1184.7977294921875 14 12 17
303 76 1184.287353515625 14 13 18
304 76 1183.7603759765625 16 17 22
305 76 1183.2169189453125 19 20 25
306 76 1182.6568603515625 14 15 20
307 76 1182.08056640625 21 24 29
308 76 1181.4879150390625 24 24 32
309 76 1180.87890625 21 21 31
312 76 1178.2822265625 32 36 45
313 76 1177.59326171875 34 41 49
314 76 1176.888427734375 50 57 67
315 76 1176.1680908203125 49 58 67
316 76 1175.4320068359375 59 69 78
317 76 1174.680419921875 58 67 74
318 76 1173.91357421875 91 94 99
319 76 1173.13134765625 92 92 94
320 76 1172.333984375 103 98 102
321 76 1171.5213623046875 115 109 113
322 76 1170.6939697265625 112 106 110
323 76 1169.8514404296875 126 119 126
324 76 1168.994140625 132 124 135
325 76 1168.1221923828125 130 122 133
326 76 1167.235595703125 140 130 141
328 76 1168.1221923828125 126 120 134
330 76 1166.3345947265625 140 136 151
331 76 1165.4190673828125 137 135 149
332 76 1164.4893798828125 140 136 151
335 76 1160.629638671875 126 119 137
368 76 1122.6739501953125 119 109 134
369 76 1125.1268310546875 125 117 141
372 76 1121.431396484375 130 117 143
373 76 1120.178466796875 127 114 140
374 76 1118.9151611328125 124 111 139
375 76 1117.641357421875 126 116 143
377 76 1115.0638427734375 122 112 137
378 76 1113.7601318359375 121 111 136
379 76 1112.4466552734375 107 97 122
380 76 1111.12353515625 123 113 140
403 76 1043.5753173828125 137 128 157
404 76 1042.18798828125 136 130 156
405 76 1040.794677734375 132 126 154
409 76 1038.3214111328125 121 116 148
410 76 1036.885498046875 123 118 150
411 76 1035.44384765625 121 118 149
412 76 1033.9967041015625 116 111 143
414 76 1031.0863037109375 129 123 157
415 76 1029.623291015625 113 107 141
431 76 997.014404296875 140 133 167
432 76 995.5169067382812 138 132 166
433 76 994.0158081054688 135 129 163
434 76 992.5113525390625 131 127 160
435 76 991.0035400390625 138 134 167
438 76 986.461181640625 143 132 166
439 76 984.9409790039062 152 141 173
441 76 984.6080322265625 141 135 163
445 76 978.42724609375 142 139 166
446 76 976.8758544921875 150 146 173
448 76 973.7664184570312 147 144 173
482 76 917.030517578125 163 159 182
484 76 927.3313598632812 170 166 189
524 76 883.6981201171875 181 178 197
531 76 873.1998901367188 176 173 192
550 76 851.7249145507812 179 175 192
551 76 849.9905395507812 175 171 188
552 76 848.2603759765625 182 178 195
553 76 846.5345458984375 180 176 193
555 76 843.0952758789062 177 170 188
572 76 811.8081665039062 184 176 197
611 76 736.40771484375 170 150 178
612 76 733.9591064453125 165 149 176
613 76 732.5946044921875 167 153 178
652 76 678.6343994140625 147 129 167
829 76 508.0836181640625 187 185 206
886 76 471.1576843261719 166 144 167
1620 76 229.86581420898438 150 134 171
1625 76 229.0851593017578 149 133 170
1626 76 228.9159698486328 156 142 178
1636 76 227.2342987060547 162 157 197
1639 76 226.6643829345703 163 161 198
1658 76 223.63320922851562 147 145 184
1660 76 223.31150817871094 162 165 200
1664 76 222.66981506347656 159 163 198
1665 76 222.5099639892578 156 160 195
1678 76 220.3964385986328 154 160 192
1679 76 220.23988342285156 156 161 193
1682 76 219.8261260986328 146 152 184
1683 76 219.6703338623047 143 152 183
1698 76 217.50042724609375 163 173 198
1699 76 217.34793090820312 162 172 197
1700 76 217.1956329345703 174 185 207
1701 76 217.04356384277344 169 180 202
1702 76 216.89169311523438 166 177 199
1703 76 216.7400360107422 168 179 201
1717 76 214.63352966308594 166 177 199
1718 76 214.4850311279297 154 164 189
1719 76 214.3367156982422 165 175 200
1720 76 214.18861389160156 153 160 186
1721 76 214.0407257080078 173 181 204
1725 76 213.37591552734375 169 176 194
1726 76 213.30618286132812 173 180 198
1759 76 209.35440063476562 157 166 181
1761 76 209.1374969482422 163 170 186
1762 76 208.9965057373047 162 169 187
1763 76 208.8556671142578 162 171 188
1783 76 206.08663940429688 158 164 178
1785 76 205.80047607421875 165 173 186
1789 76 204.85003662109375 150 152 167
1791 76 204.58966064453125 152 151 165
1793 76 204.31993103027344 158 160 173
1813 76 201.7942657470703 154 153 171
1814 76 201.66297912597656 150 147 166
1817 76 201.27015686035156 135 136 156
1821 76 200.7487335205078 104 119 140
1843 76 198.177734375 14 14 14
1846 76 197.79835510253906 12 10 11
1847 76 197.67221069335938 12 10 11
1848 76 197.54623413085938 12 10 11
1856 76 196.54225158691406 14 14 16
1860 76 195.3038787841797 3 4 6
1861 76 195.18089294433594 10 11 13
1862 76 195.05807495117188 13 17 16
1864 76 194.8138427734375 7 7 9
1865 76 194.69149780273438 9 9 11
119 77 1025.4171142578125 6 8 7
127 77 1044.576171875 6 7 9
153 77 1147.4168701171875 3 3 3
155 77 1147.267578125 6 6 6
159 77 1158.0750732421875 2 4 3
170 77 1185.109375 12 12 12
171 77 1186.5933837890625 8 8 8
198 77 1088.4755859375 9 9 9
204 77 1087.38330078125 8 8 8
205 77 1088.4755859375 16 16 16
206 77 1089.557861328125 12 10 11
207 77 1086.955322265625 19 17 18
208 77 1088.006103515625 15 13 14
210 77 1090.0765380859375 12 10 11
211 77 1090.0765380859375 9 7 8
222 77 1114.0478515625 16 16 16
223 77 1114.9483642578125 13 13 13
224 77 1115.836669921875 15 13 14
225 77 1116.712646484375 7 5 6
245 77 1176.3458251953125 5 6 8
246 77 1176.8121337890625 7 8 10
247 77 1177.2618408203125 13 14 16
248 77 1177.6953125 12 12 14
249 77 1178.1119384765625 10 10 12
251 77 1178.895751953125 8 9 11
252 77 1179.2625732421875 12 16 17
256 77 1192.056640625 10 11 15
259 77 1193.1954345703125 12 13 15
265 77 1195.6697998046875 12 13 15
267 77 1195.8565673828125 12 16 19
272 77 1196.5247802734375 7 6 11
273 77 1196.60498046875 9 8 13
274 77 1196.66748046875 7 8 10
275 77 1196.7120361328125 6 7 9
276 77 1196.73876953125 7 6 11
277 77 1196.7476806640625 12 11 16
279 77 1196.66748046875 7 7 9
280 77 1196.60498046875 15 14 19
281 77 1196.5247802734375 10 11 15
282 77 1196.4267578125 8 9 13
286 77 1196.3109130859375 13 12 17
287 77 1196.1771240234375 13 13 15
288 77 1196.02587890625 18 19 23
289 77 1195.8565673828125 13 14 18
290 77 1195.6697998046875 12 11 17
291 77 1195.46533203125 11 10 16
292 77 1195.2430419921875 9 8 13
293 77 1195.003173828125 14 13 18
294 77 1194.7457275390625 12 11 16
298 77 1191.2113037109375 10 9 14
299 77 1190.7628173828125 20 19 24
300 77 1190.29736328125 18 15 22
301 77 1189.81494140625 12 11 17
302 77 1189.315673828125 11 10 15
303 77 1188.7994384765625 14 15 19
304 77 1188.2664794921875 18 19 24
305 77 1187.7166748046875 13 16 21
306 77 1187.150390625 22 25 30
307 77 1186.5673828125 21 24 29
308 77 1185.9678955078125 18 21 28
309 77 1185.35205078125 17 17 27
310 77 1184.7197265625 26 26 38
312 77 1182.725830078125 33 36 45
313 77 1182.0289306640625 43 47 56
314 77 1181.3162841796875 43 47 56
315 77 1180.587646484375 51 58 68
317 77 1179.0833740234375 70 74 83
318 77 1178.3077392578125 92 93 98
319 77 1177.5167236328125 90 89 94
320 77 1176.7103271484375 105 103 108
321 77 1175.888671875 110 105 111
322 77 1175.0518798828125 126 121 127
323 77 1174.199951171875 118 113 120
324 77 1173.3330078125 122 114 127
325 77 1172.451416015625 125 117 132
327 77 1170.643798828125 130 119 136
329 77 1171.554931640625 125 118 136
331 77 1169.71826171875 121 118 135
332 77 1168.778076171875 123 121 135
333 77 1167.82373046875 129 125 142
334 77 1165.8724365234375 119 114 134
336 77 1163.865234375 118 113 135
369 77 1125.304931640625 125 116 143
371 77 1122.7623291015625 122 113 140
373 77 1124.038818359375 116 106 133
374 77 1122.7623291015625 118 107 137
375 77 1121.4754638671875 113 104 133
378 77 1117.55419921875 109 100 127
381 77 1117.3218994140625 122 113 142
382 77 1115.952392578125 127 116 148
403 77 1046.813720703125 136 130 156
404 77 1045.4136962890625 131 127 152
405 77 1044.0072021484375 129 125 150
406 77 1042.5947265625 137 133 160
408 77 1049.3782958984375 138 135 166
410 77 1040.0501708984375 127 127 155
411 77 1038.595458984375 133 133 161
413 77 1035.6693115234375 124 123 154
415 77 1032.7218017578125 119 116 147
432 77 998.3477783203125 143 136 167
433 77 996.833984375 151 146 176
434 77 995.3167114257812 149 144 174
437 77 990.745361328125 145 140 170
438 77 989.21533203125 156 147 176
439 77 987.682373046875 158 148 175
440 77 988.8880615234375 156 147 174
443 77 984.2257080078125 159 157 181
445 77 981.1046142578125 174 171 192
446 77 979.54052734375 169 165 188
447 77 977.9741821289062 163 159 182
463 77 957.5628662109375 154 152 176
482 77 934.6722412109375 177 172 192
486 77 927.813232421875 183 178 198
490 77 908.2640380859375 163 160 181
507 77 922.0969848632812 176 171 191
514 77 897.4971923828125 181 174 192
524 77 887.2752685546875 182 175 193
525 77 885.5029907226562 185 178 196
526 77 881.9684448242188 184 180 197
549 77 855.04345703125 188 176 196
550 77 853.295166015625 177 165 187
551 77 851.55126953125 175 166 185
553 77 848.0762329101562 182 173 192
652 77 679.4964599609375 143 126 168
965 77 424.5875549316406 175 175 203
966 77 424.045654296875 167 168 196
967 77 423.5050354003906 177 178 206
968 77 422.9656677246094 180 181 209
969 77 422.4275817871094 173 175 200
1620 77 229.93487548828125 156 146 183
1625 77 229.08612060546875 163 151 187
1626 77 228.91693115234375 166 156 193
1636 77 227.1581268310547 160 162 200
1639 77 226.65997314453125 159 163 198
1657 77 223.74009704589844 165 171 207
1660 77 223.26028442382812 163 169 201
1661 77 223.09962463378906 166 173 202
1662 77 222.93919372558594 174 180 212
1664 77 222.67022705078125 161 170 203
1676 77 220.7065887451172 153 169 195
1678 77 220.392822265625 169 178 207
1680 77 220.07992553710938 170 177 206
1717 77 214.63543701171875 174 185 205
1719 77 214.33860778808594 160 168 191
1720 77 214.19052124023438 167 173 195
1723 77 213.7492218017578 173 182 197
1760 77 209.28009033203125 167 170 185
1761 77 209.1388702392578 161 164 179
1762 77 208.92735290527344 158 161 176
1766 77 208.3657684326172 159 163 175
1785 77 205.79879760742188 161 163 176
1789 77 204.8484649658203 156 154 168
1813 77 201.79380798339844 149 146 163
1814 77 201.6625213623047 150 145 165
1820 77 200.87835693359375 102 114 136
1827 77 199.83441162109375 32 41 40
1842 77 198.30360412597656 16 16 16
1846 77 197.79742431640625 15 13 14
1847 77 197.67129516601562 23 21 22
1855 77 196.66587829589844 18 19 21
1860 77 195.30282592773438 14 15 17
1861 77 195.17984008789062 2 3 5
1863 77 194.93540954589844 7 11 10
1864 77 194.81289672851562 7 8 10
119 78 1028.3758544921875 4 4 4
131 78 1067.8486328125 3 3 5
152 78 1147.4876708984375 5 5 5
155 78 1151.1141357421875 5 5 7
173 78 1188.065673828125 2 4 3
204 78 1091.048583984375 14 12 13
205 78 1092.1519775390625 9 7 8
207 78 1090.6297607421875 9 9 11
208 78 1091.6912841796875 8 8 10
210 78 1093.78271484375 13 11 12
211 78 1093.78271484375 4 2 3
223 78 1118.871337890625 8 6 7
224 78 1119.76904296875 8 8 10
225 78 1120.654296875 11 11 13
226 78 1117.5760498046875 6 6 6
245 78 1180.8017578125 12 12 14
246 78 1181.2733154296875 6 6 8
247 78 1181.728271484375 9 9 11
248 78 1182.16650390625 2 2 4
249 78 1182.5880126953125 5 5 7
250 78 1182.9927978515625 11 12 14
251 78 1183.380615234375 2 3 5
253 78 1181.728271484375 6 7 9
267 78 1200.48486328125 4 5 7
270 78 1200.9443359375 7 8 10
271 78 1201.0615234375 16 17 19
272 78 1201.1607666015625 15 15 17
273 78 1201.241943359375 13 13 15
274 78 1201.304931640625 8 9 11
275 78 1201.3502197265625 3 7 8
276 78 1201.377197265625 10 11 15
277 78 1201.38623046875 10 11 15
278 78 1201.377197265625 9 9 11
279 78 1201.304931640625 3 3 5
280 78 1201.241943359375 13 14 16
281 78 1201.1607666015625 9 13 14
282 78 1201.0615234375 1 5 8
283 78 1200.9443359375 9 10 14
284 78 1200.8092041015625 9 8 14
286 78 1200.9443359375 17 16 21
287 78 1200.8092041015625 11 10 15
288 78 1200.656005859375 9 10 12
289 78 1200.48486328125 13 17 18
290 78 1200.2958984375 6 7 11
291 78 1200.0888671875 14 15 19
292 78 1199.8641357421875 16 15 21
293 78 1199.621337890625 13 12 18
294 78 1199.3609619140625 17 18 22
301 78 1194.3731689453125 14 13 19
302 78 1193.8680419921875 21 20 26
303 78 1193.3458251953125 11 12 17
304 78 1192.806640625 10 11 16
305 78 1192.2506103515625 21 22 27
306 78 1191.677734375 12 13 17
307 78 1191.088134765625 12 13 18
308 78 1190.481689453125 15 15 23
309 78 1189.85888671875 16 16 24
310 78 1189.2193603515625 25 25 35
311 78 1188.5633544921875 33 36 45
313 78 1186.4979248046875 34 38 47
314 78 1185.7769775390625 39 42 51
315 78 1185.0401611328125 51 54 63
316 78 1184.287353515625 62 66 77
317 78 1183.5186767578125 60 64 73
318 78 1182.734375 59 59 67
319 78 1181.9344482421875 81 80 86
320 78 1181.1190185546875 89 86 93
321 78 1180.2879638671875 92 89 96
322 78 1179.4417724609375 101 98 105
323 78 1178.580322265625 123 120 129
324 78 1177.7037353515625 121 113 128
325 78 1176.8121337890625 116 105 122
326 78 1175.905517578125 121 109 129
327 78 1174.9842529296875 134 122 144
328 78 1174.04833984375 125 116 137
330 78 1174.9842529296875 124 116 137
332 78 1173.0977783203125 130 126 143
333 78 1172.1328125 124 120 137
334 78 1171.1534423828125 107 102 124
335 78 1169.152099609375 115 110 133
369 78 1129.20361328125 126 120 146
370 78 1127.9244384765625 121 117 142
371 78 1126.6346435546875 109 105 130
372 78 1125.3345947265625 125 119 145
373 78 1124.0240478515625 134 128 154
375 78 1125.3345947265625 120 114 142
376 78 1124.0240478515625 129 123 149
380 78 1122.497314453125 121 115 143
381 78 1121.123291015625 117 111 139
404 78 1048.6573486328125 135 131 154
405 78 1047.2379150390625 137 133 156
406 78 1045.812255859375 142 138 163
409 78 1044.6949462890625 139 139 163
410 78 1043.232421875 132 132 158
411 78 1041.7640380859375 148 148 172
412 78 1040.2904052734375 148 148 172
413 78 1038.8111572265625 149 147 171
415 78 1035.8370361328125 150 146 173
416 78 1034.3421630859375 143 140 169
432 78 1001.1925659179688 161 152 179
433 78 999.665771484375 151 143 167
434 78 998.1356201171875 155 150 173
435 78 996.60205078125 160 156 179
436 78 995.0653076171875 154 150 173
437 78 993.5254516601562 153 149 172
438 78 991.9826049804688 161 156 179
439 78 990.436767578125 161 153 177
446 78 982.21728515625 173 168 188
456 78 966.3366088867188 166 162 185
463 78 960.0078125 161 156 179
468 78 951.57861328125 178 174 191
486 78 914.8230590820312 184 177 195
491 78 908.7166748046875 178 170 191
533 78 874.899169921875 177 164 184
549 78 856.6256103515625 178 163 186
550 78 854.8677368164062 179 163 189
553 78 849.6200561523438 179 164 187
554 78 847.8794555664062 176 162 187
555 78 846.1432495117188 178 164 189
568 78 819.75 171 155 181
569 78 818.1007690429688 163 147 173
570 78 815.068603515625 167 151 177
573 78 812.91015625 162 143 175
927 78 447.3792724609375 160 146 179
967 78 423.7127380371094 179 183 208
968 78 423.17254638671875 181 185 210
1620 78 229.93580627441406 178 177 211
1624 78 229.25636291503906 168 162 198
1625 78 229.08692932128906 168 162 198
1640 78 226.4898681640625 173 179 211
1642 78 226.2415771484375 182 189 218
1657 78 223.73643493652344 172 178 210
1658 78 223.57508850097656 163 170 199
1664 78 222.61553955078125 168 180 206
1665 78 222.455810546875 182 194 220
1677 78 220.70285034179688 177 191 217
1699 78 217.35113525390625 166 177 195
1700 78 217.19882202148438 166 177 195
1701 78 217.0467529296875 170 182 198
1717 78 214.54327392578125 169 181 197
1719 78 214.3404083251953 168 175 194
1720 78 214.1923065185547 171 176 195
1723 78 213.75088500976562 179 185 199
1760 78 209.205322265625 163 165 180
1761 78 209.0642852783203 164 163 179
1767 78 208.3025665283203 159 155 170
1781 78 206.34498596191406 151 153 166
1789 78 204.84681701660156 153 147 161
1794 78 204.18374633789062 143 135 148
1813 78 201.79324340820312 129 122 138
1823 78 200.47933959960938 56 58 79
1827 78 199.83673095703125 25 29 30
1845 78 197.92271423339844 11 9 12
1846 78 197.79641723632812 16 14 17
1848 78 197.5408172607422 9 7 8
1850 78 197.291748046875 11 11 13
1852 78 197.0409393310547 16 16 16
1853 78 196.9145965576172 16 16 16
1854 78 196.78958129882812 7 8 10
1859 78 195.42483520507812 7 8 10
1860 78 195.30169677734375 7 8 12
1862 78 195.05703735351562 2 6 7
1863 78 194.93435668945312 0 4 5
1865 78 194.68836975097656 10 11 13
117 79 1041.7640380859375 11 13 12
119 79 1031.348876953125 4 4 4
123 79 1024.12890625 7 7 9
138 79 1073.7462158203125 12 12 12
143 79 1141.8211669921875 7 9 8
152 79 1153.20751953125 11 11 11
155 79 1154.983642578125 5 5 7
171 79 1195.2430419921875 21 21 21
181 79 1105.9482421875 8 8 8
195 79 1095.85205078125 12 12 12
196 79 1096.9564208984375 11 11 11
202 79 1099.1336669921875 11 9 10
204 79 1094.7374267578125 9 7 8
205 79 1095.85205078125 4 2 3
206 79 1093.2451171875 2 2 4
207 79 1094.3280029296875 15 15 17
209 79 1096.462158203125 13 13 15
211 79 1097.5133056640625 14 12 13
221 79 1121.9014892578125 9 9 9
223 79 1122.8212890625 6 4 5
224 79 1123.728515625 16 16 18
225 79 1124.6231689453125 9 9 11
226 79 1121.52685546875 15 15 15
246 79 1185.768310546875 5 5 7
247 79 1186.228515625 12 12 14
248 79 1186.6717529296875 4 4 6
249 79 1187.0980224609375 10 10 12
267 79 1205.14892578125 6 7 9
268 79 1205.3221435546875 10 10 12
270 79 1205.61376953125 10 11 13
271 79 1205.7322998046875 14 15 17
272 79 1205.8326416015625 7 7 9
273 79 1205.914794921875 10 10 12
274 79 1205.978759765625 7 8 10
275 79 1206.0244140625 14 15 17
276 79 1206.0517578125 12 13 17
277 79 1206.0609130859375 12 11 16
278 79 1206.0517578125 6 6 8
279 79 1205.978759765625 14 14 16
280 79 1205.914794921875 7 8 10
281 79 1205.8326416015625 2 6 7
282 79 1205.7322998046875 3 7 10
283 79 1205.61376953125 11 12 16
284 79 1205.47705078125 9 10 15
287 79 1205.47705078125 13 12 17
288 79 1205.3221435546875 11 12 16
289 79 1205.14892578125 16 20 23
290 79 1204.957763671875 14 15 19
291 79 1204.748291015625 3 4 8
292 79 1204.5208740234375 13 12 18
293 79 1204.275390625 17 16 22
294 79 1204.0118408203125 10 11 15
295 79 1203.73046875 10 14 17
301 79 1198.966064453125 8 7 13
302 79 1198.455078125 6 7 12
303 79 1197.9268798828125 10 11 16
304 79 1197.381591796875 17 18 23
305 79 1196.819091796875 12 13 18
306 79 1196.2396240234375 17 18 22
307 79 1195.6431884765625 17 16 22
308 79 1195.02978515625 25 24 30
309 79 1194.399658203125 20 19 27
310 79 1193.7529296875 23 26 35
311 79 1193.08935546875 23 27 36
313 79 1191.000244140625 33 37 46
314 79 1190.27099609375 57 57 67
315 79 1189.5257568359375 40 40 50
316 79 1188.7645263671875 55 57 69
317 79 1187.9871826171875 59 62 71
318 79 1187.19384765625 79 79 89
319 79 1186.384765625 98 97 105
320 79 1185.5601806640625 85 82 91
321 79 1184.7197265625 80 77 86
322 79 1183.864013671875 101 100 108
323 79 1182.9927978515625 109 106 117
324 79 1182.106201171875 115 107 122
325 79 1181.2047119140625 119 108 125
326 79 1180.2879638671875 124 112 134
327 79 1179.3563232421875 122 112 136
328 79 1178.409912109375 115 105 129
329 79 1177.44873046875 121 113 137
331 79 1178.409912109375 114 109 131
332 79 1177.44873046875 117 113 130
333 79 1176.4730224609375 118 115 132
334 79 1175.482666015625 117 114 135
335 79 1174.47802734375 108 104 127
336 79 1172.42626953125 109 105 130
367 79 1135.6807861328125 126 122 147
370 79 1131.8355712890625 124 120 143
371 79 1130.5323486328125 138 134 157
372 79 1129.2186279296875 120 116 139
373 79 1127.89453125 139 134 157
374 79 1126.560302734375 125 119 145
375 79 1125.2158203125 128 122 148
378 79 1125.2158203125 126 122 145
379 79 1123.8614501953125 125 121 146
380 79 1126.3370361328125 117 113 138
381 79 1124.9490966796875 120 116 141
405 79 1050.4866943359375 156 153 174
406 79 1049.0477294921875 154 151 172
412 79 1043.462890625 153 151 172
413 79 1041.9700927734375 147 146 164
414 79 1040.4720458984375 164 159 181
415 79 1038.96875 154 149 171
416 79 1037.460205078125 160 156 179
431 79 1005.5878295898438 160 150 174
432 79 1004.0513916015625 160 150 174
433 79 1002.5113525390625 162 153 174
434 79 1000.9681396484375 157 149 170
435 79 999.4215698242188 159 154 174
436 79 997.8717041015625 163 158 178
437 79 996.31884765625 157 154 173
438 79 994.7628784179688 159 154 174
439 79 993.2040405273438 161 156 176
441 79 992.83203125 170 162 185
442 79 991.2518310546875 160 152 173
443 79 989.6690673828125 159 154 174
444 79 988.0838012695312 176 172 189
445 79 986.4961547851562 173 169 186
455 79 970.5054931640625 171 166 186
456 79 968.8967895507812 174 166 187
467 79 967.5552368164062 169 162 180
470 79 950.5712890625 172 163 182
491 79 910.813232421875 184 172 192
506 79 927.8671875 180 166 189
513 79 916.7536010742188 186 171 192
515 79 907.2207641601562 185 172 192
526 79 887.33349609375 178 165 185
546 79 861.925048828125 182 162 189
547 79 860.154296875 167 147 174
550 79 856.4425048828125 171 152 180
551 79 854.6792602539062 172 153 181
553 79 851.1659545898438 181 161 189
554 79 849.4158935546875 175 156 184
555 79 847.670166015625 185 166 194
568 79 821.155517578125 171 157 183
569 79 819.4978637695312 164 149 178
650 79 692.019775390625 133 129 166
863 79 486.9210205078125 162 137 166
965 79 425.0056457519531 189 195 217
968 79 423.37896728515625 190 196 218
1619 79 230.1073455810547 176 179 212
1620 79 229.9366455078125 176 179 210
1623 79 229.42674255371094 177 176 207
1624 79 229.25704956054688 183 182 214
1625 79 229.0876007080078 169 168 200
1637 79 226.98257446289062 182 192 219
1662 79 223.09246826171875 166 178 202
1664 79 222.83074951171875 175 187 211
1666 79 222.45217895507812 178 186 207
1676 79 220.856201171875 183 194 216
1677 79 220.69900512695312 181 193 215
1678 79 220.54200744628906 184 195 215
1683 79 219.82762145996094 171 184 203
1702 79 216.8025360107422 171 178 196
1719 79 214.34210205078125 182 185 202
1720 79 214.19398498535156 178 177 193
1723 79 213.75245666503906 169 171 186
1743 79 211.64071655273438 171 173 186
1756 79 209.77932739257812 157 156 172
1759 79 209.34251403808594 162 161 177
1760 79 209.20126342773438 157 154 171
1761 79 209.06024169921875 164 157 173
1764 79 208.71888732910156 165 152 169
1787 79 205.12867736816406 138 127 143
1788 79 204.99302673339844 133 122 138
1790 79 204.7097930908203 124 113 129
1826 79 199.9645233154297 29 32 37
1844 79 198.04808044433594 10 10 12
1845 79 197.92161560058594 16 14 17
1847 79 197.6654510498047 16 14 17
1852 79 197.0385284423828 8 8 10
1853 79 196.9133758544922 11 12 14
1858 79 195.54690551757812 10 11 13
1859 79 195.4236297607422 13 14 16
1861 79 195.17874145507812 11 12 16
1862 79 195.055908203125 10 14 15
1864 79 194.80953979492188 7 8 10
117 80 1044.855224609375 5 5 5
119 80 1034.3363037109375 12 10 11
145 80 1145.5582275390625 10 10 12
151 80 1157.06591796875 5 6 8
153 80 1155.1038818359375 7 9 8
158 80 1170.0181884765625 4 5 7
169 80 1196.53369140625 13 15 14
170 80 1198.0791015625 15 15 15
172 80 1195.2430419921875 8 8 8
193 80 1118.8131103515625 12 12 12
194 80 1090.2855224609375 8 8 8
202 80 1102.8914794921875 14 12 15
204 80 1098.4501953125 12 10 13
205 80 1095.85205078125 15 13 16
206 80 1096.9564208984375 14 12 13
207 80 1098.0504150390625 13 11 12
209 80 1100.2064208984375 6 4 5
210 80 1100.2064208984375 9 7 10
220 80 1124.9268798828125 12 10 11
221 80 1125.8687744140625 6 4 5
223 80 1126.7984619140625 9 7 8
224 80 1127.7154541015625 9 7 10
225 80 1124.6231689453125 11 9 12
245 80 1189.81494140625 0 0 2
246 80 1190.29736328125 14 15 17
247 80 1190.7628173828125 20 21 23
248 80 1191.2113037109375 2 3 5
249 80 1191.642578125 4 5 7
251 80 1192.45361328125 10 11 13
252 80 1192.833251953125 11 11 13
266 80 1209.849365234375 14 13 18
267 80 1210.024658203125 12 11 16
268 80 1210.024658203125 12 13 15
269 80 1210.1812744140625 10 11 13
270 80 1210.3197021484375 9 10 12
271 80 1210.4395751953125 3 4 6
272 80 1210.5411376953125 8 7 12
273 80 1210.624267578125 2 1 6
274 80 1210.68896484375 5 4 9
275 80 1210.735107421875 9 8 13
276 80 1210.7628173828125 0 0 4
277 80 1210.7720947265625 8 7 12
278 80 1210.7628173828125 10 9 14
280 80 1210.624267578125 9 9 11
281 80 1210.5411376953125 8 9 11
282 80 1210.4395751953125 9 10 14
283 80 1210.3197021484375 5 6 10
284 80 1210.1812744140625 7 8 12
285 80 1210.024658203125 17 16 21
287 80 1210.1812744140625 8 7 12
288 80 1210.024658203125 9 10 14
289 80 1209.849365234375 13 14 18
290 80 1209.656005859375 17 18 22
291 80 1209.444091796875 10 11 15
292 80 1209.2139892578125 3 2 7
293 80 1208.965576171875 10 9 14
294 80 1208.698974609375 15 16 20
295 80 1208.4141845703125 8 9 13
302 80 1203.077392578125 22 23 28
303 80 1202.54296875 14 15 20
304 80 1201.9913330078125 15 14 20
305 80 1201.42236328125 17 16 22
306 80 1200.836181640625 18 17 23
307 80 1200.2327880859375 23 20 27
308 80 1199.6124267578125 18 15 22
309 80 1198.9749755859375 28 27 35
310 80 1198.32080078125 21 24 33
311 80 1197.649658203125 28 32 41
312 80 1196.9617919921875 21 25 36
314 80 1194.7989501953125 46 46 56
315 80 1194.045166015625 44 42 53
316 80 1193.275146484375 58 56 67
317 80 1192.4888916015625 70 68 79
318 80 1191.6866455078125 76 73 84
319 80 1190.868408203125 63 60 71
320 80 1190.0343017578125 88 85 94
321 80 1189.184326171875 82 79 88
322 80 1188.3187255859375 90 88 99
323 80 1187.4378662109375 100 97 108
324 80 1186.541259765625 112 101 117
325 80 1185.6295166015625 129 116 133
326 80 1184.7025146484375 126 117 134
327 80 1183.7603759765625 112 107 127
329 80 1181.831298828125 119 113 139
330 80 1180.8446044921875 118 112 138
332 80 1181.831298828125 119 117 138
333 80 1180.8446044921875 115 114 132
334 80 1179.84326171875 125 123 144
335 80 1178.827392578125 117 113 136
336 80 1177.7972412109375 122 118 143
337 80 1175.694091796875 114 110 137
368 80 1138.373779296875 134 131 152
369 80 1137.078369140625 140 137 158
370 80 1135.772216796875 138 135 156
371 80 1134.4554443359375 126 123 144
372 80 1133.1280517578125 140 135 157
373 80 1131.790283203125 135 127 150
374 80 1130.442138671875 143 135 158
375 80 1129.083740234375 134 126 149
376 80 1127.7154541015625 139 131 152
380 80 1126.3370361328125 135 132 153
404 80 1055.1998291015625 150 147 166
410 80 1052.8839111328125 164 161 178
413 80 1045.1461181640625 158 155 172
414 80 1043.6343994140625 167 163 178
415 80 1042.1173095703125 171 164 182
416 80 1040.5950927734375 163 159 176
431 80 1008.4737548828125 163 156 174
432 80 1006.9240112304688 161 152 171
433 80 1005.3709106445312 160 151 170
434 80 1003.8143920898438 167 158 177
435 80 1002.2545776367188 163 156 174
436 80 1000.6915893554688 161 157 174
437 80 999.1255493164062 165 161 178
438 80 997.556396484375 168 164 181
439 80 995.984375 162 158 175
441 80 995.5990600585938 171 162 179
443 80 992.40966796875 169 160 179
444 80 990.8111572265625 168 161 177
445 80 989.2103271484375 166 159 175
447 80 986.0018920898438 172 165 181
456 80 971.4679565429688 175 166 185
460 80 969.2520751953125 178 171 187
471 80 963.2147827148438 173 162 179
503 80 935.604248046875 180 166 189
527 80 887.3406982421875 173 155 179
546 80 863.5391845703125 156 131 163
547 80 861.7584838867188 163 138 170
550 80 858.0194091796875 160 139 172
570 80 819.2344360351562 160 145 178
571 80 817.5769653320312 174 157 191
647 80 696.717041015625 153 154 185
972 80 421.7637939453125 194 199 219
1620 80 229.9373321533203 184 190 216
1624 80 229.25762939453125 184 185 215
1626 80 228.9189910888672 182 186 213
1636 80 227.2386932373047 179 186 212
1662 80 223.0886993408203 179 191 213
1666 80 222.44845581054688 182 189 207
1681 80 220.06845092773438 181 186 205
1682 80 219.98391723632812 182 189 207
1694 80 218.01222229003906 164 169 188
1695 80 217.8590850830078 175 178 195
1700 80 217.1013641357422 182 185 202
1701 80 216.94949340820312 173 176 193
1702 80 216.79782104492188 176 177 195
1703 80 216.6463623046875 176 175 193
1716 80 214.7892608642578 168 170 185
1717 80 214.64053344726562 163 165 180
1719 80 214.3437042236328 178 174 191
1720 80 214.19557189941406 170 163 179
1721 80 214.0476837158203 180 173 189
1759 80 209.33834838867188 150 147 164
1764 80 208.71995544433594 148 130 146
1766 80 208.353759765625 149 135 152
1783 80 205.67312622070312 131 118 135
1787 80 205.12765502929688 128 117 134
1790 80 204.70794677734375 126 113 130
1792 80 204.45115661621094 119 106 124
1793 80 204.45115661621094 124 111 128
1825 80 200.09239196777344 33 31 42
1826 80 199.9633026123047 30 31 36
1851 80 197.1625518798828 8 9 11
1857 80 195.6690673828125 11 12 14
1858 80 195.54562377929688 14 18 19
1860 80 195.30050659179688 14 15 17
1861 80 195.1775360107422 15 16 18
122 81 1028.3758544921875 9 11 10
153 81 1158.9813232421875 6 8 7
154 81 1160.89013671875 11 13 12
159 81 1174.04833984375 9 10 12
169 81 1200.899169921875 3 5 4
181 81 1112.360595703125 13 13 13
202 81 1106.674072265625 6 4 7
203 81 1101.0390625 6 4 7
205 81 1099.5762939453125 8 6 9
206 81 1100.69189453125 8 6 7
207 81 1101.7969970703125 9 7 8
208 81 1102.8914794921875 5 3 4
209 81 1103.975341796875 15 13 14
220 81 1128.9114990234375 9 7 8
221 81 1129.8636474609375 13 11 12
222 81 1130.8031005859375 9 7 8
223 81 1130.8031005859375 14 12 13
244 81 1193.8680419921875 3 3 5
245 81 1194.3731689453125 14 14 16
246 81 1194.861083984375 8 9 11
247 81 1195.3319091796875 8 9 11
248 81 1195.7855224609375 5 6 8
249 81 1196.2218017578125 7 8 10
251 81 1197.042236328125 8 9 11
267 81 1214.763916015625 9 10 14
268 81 1214.763916015625 8 9 11
269 81 1214.9224853515625 6 7 9
270 81 1215.0625 5 6 8
271 81 1215.1839599609375 7 8 10
272 81 1215.28662109375 10 9 14
273 81 1215.3707275390625 11 10 15
274 81 1215.4361572265625 10 9 14
275 81 1215.4827880859375 8 7 12
276 81 1215.5108642578125 17 15 20
277 81 1215.520263671875 8 6 11
278 81 1215.5108642578125 13 12 17
279 81 1215.4827880859375 16 15 20
280 81 1215.3707275390625 17 17 19
281 81 1215.28662109375 14 14 16
282 81 1215.1839599609375 8 9 11
283 81 1215.0625 5 6 10
284 81 1214.9224853515625 5 6 10
286 81 1214.586669921875 9 8 13
288 81 1214.763916015625 13 12 18
289 81 1214.586669921875 7 8 13
290 81 1214.390869140625 12 13 17
291 81 1214.176513671875 25 26 30
292 81 1213.9437255859375 13 12 17
293 81 1213.6925048828125 9 8 13
294 81 1213.4227294921875 14 13 18
295 81 1213.134521484375 14 13 18
296 81 1212.8280029296875 12 11 16
300 81 1211.0216064453125 21 20 26
302 81 1207.7352294921875 19 20 25
303 81 1207.1947021484375 14 15 20
304 81 1206.636474609375 11 10 16
305 81 1206.0609130859375 12 11 17
306 81 1205.4678955078125 17 14 21
307 81 1204.8575439453125 21 18 25
308 81 1204.22998046875 28 25 32
309 81 1203.585205078125 25 24 32
310 81 1202.92333984375 24 27 34
311 81 1202.2445068359375 32 36 45
312 81 1201.5487060546875 28 32 43
313 81 1200.836181640625 34 36 48
315 81 1198.5985107421875 46 44 57
316 81 1197.8194580078125 58 55 66
317 81 1197.0242919921875 53 50 61
318 81 1196.2127685546875 53 50 61
319 81 1195.38525390625 85 82 93
320 81 1194.5416259765625 77 74 85
321 81 1193.68212890625 88 85 96
322 81 1192.806640625 95 93 106
323 81 1191.9156494140625 96 92 106
324 81 1191.009033203125 122 114 129
325 81 1190.0867919921875 127 119 134
326 81 1189.1494140625 124 120 135
327 81 1188.196533203125 107 104 123
328 81 1187.2286376953125 120 116 139
330 81 1185.248046875 108 103 126
331 81 1184.2354736328125 114 109 131
333 81 1185.248046875 111 110 128
334 81 1184.2354736328125 122 120 141
335 81 1183.208251953125 128 126 147
336 81 1182.16650390625 124 120 145
337 81 1181.1103515625 127 123 148
369 81 1141.054931640625 138 135 152
370 81 1139.735107421875 139 136 153
371 81 1138.4044189453125 135 131 148
372 81 1137.0631103515625 147 143 160
373 81 1135.7113037109375 142 135 153
374 81 1134.34912109375 145 138 156
375 81 1132.9765625 147 140 158
376 81 1131.5941162109375 153 144 161
381 81 1128.7991943359375 158 155 174
407 81 1055.5731201171875 150 146 161
409 81 1051.138916015625 162 155 171
410 81 1056.1365966796875 163 159 174
411 81 1054.6134033203125 173 169 184
413 81 1048.3394775390625 163 159 173
414 81 1046.813720703125 169 163 177
415 81 1045.2828369140625 174 168 182
416 81 1043.7467041015625 167 161 175
429 81 1014.4893798828125 168 164 179
431 81 1011.3739624023438 167 160 176
432 81 1009.8108520507812 170 161 178
433 81 1008.2443237304688 162 153 170
434 81 1006.6743774414062 165 156 173
435 81 1005.101318359375 163 154 171
436 81 1003.5249633789062 166 159 175
437 81 1001.9456176757812 160 153 169
438 81 1000.3631591796875 166 159 175
439 81 998.7778930664062 157 150 166
443 81 995.1627197265625 172 161 178
444 81 993.551025390625 174 165 182
445 81 991.9368286132812 170 161 178
455 81 975.6846313476562 176 165 182
456 81 974.050048828125 170 159 176
457 81 972.4141235351562 173 162 179
507 81 932.1117553710938 165 146 174
528 81 887.33349609375 173 150 179
546 81 865.1557006835938 147 122 161
548 81 874.1751708984375 140 115 154
550 81 859.598388671875 138 117 156
645 81 700.1908569335938 173 177 206
646 81 698.9098510742188 166 171 200
647 81 697.63232421875 171 176 205
648 81 696.3582763671875 172 177 206
649 81 695.087646484375 170 177 205
651 81 691.6613159179688 153 163 190
652 81 690.4058837890625 152 159 187
653 81 689.1539306640625 168 175 203
885 81 471.3183288574219 173 170 199
966 81 425.4217834472656 195 200 220
967 81 424.8766784667969 203 208 228
968 81 424.3328552246094 204 206 227
1625 81 228.99887084960938 189 193 218
1626 81 228.91941833496094 184 188 213
1658 81 223.796142578125 180 185 205
1661 81 223.3123779296875 181 188 207
1679 81 220.37721252441406 169 170 190
1680 81 220.220703125 178 176 197
1695 81 217.8540802001953 167 164 183
1698 81 217.50765991210938 173 169 186
1700 81 217.2028350830078 168 164 181
1701 81 216.94464111328125 167 163 180
1718 81 214.4934844970703 171 164 180
1720 81 214.19705200195312 161 150 167
1758 81 211.9089813232422 122 117 137
1760 81 209.28465270996094 135 124 141
1761 81 209.14346313476562 140 123 142
1764 81 208.72096252441406 136 113 133
1782 81 205.8086395263672 138 125 145
1787 81 205.12652587890625 101 89 111
1792 81 204.58497619628906 106 92 115
1793 81 204.4500274658203 109 96 116
1847 81 197.66677856445312 18 17 22
1856 81 195.7913055419922 11 12 14
1857 81 195.66769409179688 16 17 19
1859 81 195.42236328125 10 14 15
1860 81 195.29922485351562 12 13 15
116 82 1049.3782958984375 4 6 5
119 82 1040.354736328125 4 4 4
129 82 1074.2620849609375 5 5 5
152 82 1164.8509521484375 8 10 9
154 82 1164.8099365234375 4 4 4
157 82 1176.227294921875 7 7 9
163 82 1179.561279296875 7 7 7
169 82 1205.2947998046875 15 15 15
171 82 1204.0118408203125 4 4 4
181 82 1116.1839599609375 13 13 13
203 82 1104.7884521484375 12 12 14
204 82 1102.18701171875 9 9 11
205 82 1103.3245849609375 8 8 10
206 82 1104.4517822265625 6 6 6
208 82 1106.674072265625 7 7 7
209 82 1107.76904296875 20 20 20
219 82 1131.9486083984375 7 7 9
220 82 1132.9237060546875 4 4 6
221 82 1133.885986328125 11 11 13
222 82 1134.8355712890625 11 9 10
223 82 1134.8355712890625 17 15 16
224 82 1131.7298583984375 13 13 13
242 82 1197.9268798828125 13 13 15
244 82 1198.455078125 11 11 13
245 82 1198.966064453125 7 7 9
246 82 1199.459716796875 12 12 14
247 82 1199.9359130859375 8 8 10
248 82 1200.394775390625 6 7 9
249 82 1200.836181640625 6 7 9
250 82 1201.2598876953125 5 9 10
259 82 1216.540283203125 11 12 14
267 82 1219.5404052734375 7 8 10
268 82 1219.5404052734375 6 7 9
269 82 1219.700927734375 6 10 11
270 82 1219.842529296875 5 6 10
271 82 1219.96533203125 5 6 10
272 82 1220.0693359375 10 11 15
273 82 1220.1544189453125 14 15 19
274 82 1220.2205810546875 14 14 16
275 82 1220.2679443359375 9 9 11
276 82 1220.2962646484375 10 9 14
277 82 1220.3056640625 13 12 17
278 82 1220.2962646484375 14 13 18
279 82 1220.2679443359375 10 9 14
281 82 1220.0693359375 8 8 10
282 82 1219.96533203125 12 12 14
283 82 1219.842529296875 3 3 5
284 82 1219.700927734375 11 11 13
285 82 1219.5404052734375 7 7 9
288 82 1219.5404052734375 9 8 13
289 82 1219.361083984375 9 8 13
290 82 1219.1629638671875 13 12 17
291 82 1218.9461669921875 18 17 22
292 82 1218.7105712890625 19 18 23
293 82 1218.456298828125 14 13 18
294 82 1218.183349609375 7 6 11
295 82 1217.891845703125 15 13 18
296 82 1217.5816650390625 20 18 23
298 82 1213.9622802734375 12 11 16
301 82 1215.333251953125 16 15 20
303 82 1211.882080078125 17 16 22
304 82 1211.3175048828125 23 20 27
305 82 1210.735107421875 20 17 24
306 82 1210.1351318359375 19 16 23
307 82 1209.517822265625 22 19 26
308 82 1208.8828125 23 22 30
309 82 1208.2305908203125 22 21 29
310 82 1207.56103515625 20 20 28
311 82 1206.8743896484375 31 34 43
312 82 1206.1705322265625 26 29 38
313 82 1205.44970703125 40 42 54
314 82 1204.7119140625 46 45 59
316 82 1202.398193359375 53 51 64
317 82 1201.5938720703125 69 67 80
318 82 1200.7730712890625 70 68 81
319 82 1199.9359130859375 70 68 79
320 82 1199.082763671875 75 73 84
321 82 1198.21337890625 101 99 110
322 82 1197.3280029296875 100 98 111
323 82 1196.4267578125 101 99 112
324 82 1195.509765625 115 111 126
325 82 1194.5771484375 113 110 127
326 82 1193.62890625 116 113 130
327 82 1192.6654052734375 116 113 132
328 82 1191.6866455078125 118 115 136
329 82 1190.692626953125 121 118 139
330 82 1189.68359375 128 124 141
331 82 1188.65966796875 133 129 146
332 82 1187.620849609375 132 128 145
334 82 1188.65966796875 134 133 151
335 82 1187.620849609375 117 116 134
336 82 1186.5673828125 115 113 135
337 82 1185.4993896484375 120 118 140
338 82 1184.4169921875 144 142 163
369 82 1145.0577392578125 141 137 152
370 82 1143.7239990234375 144 140 155
371 82 1142.3792724609375 145 141 156
372 82 1141.02392578125 147 143 158
373 82 1139.657958984375 151 147 162
374 82 1138.2816162109375 144 140 155
375 82 1136.8948974609375 151 147 161
376 82 1135.4979248046875 156 150 164
377 82 1134.0909423828125 155 149 163
403 82 1064.7442626953125 167 161 175
404 82 1063.2835693359375 160 154 168
408 82 1057.3773193359375 161 155 169
412 82 1053.08447265625 167 161 175
416 82 1046.915283203125 174 166 179
417 82 1045.3602294921875 177 169 182
430 82 1015.861572265625 162 154 169
431 82 1014.2885131835938 171 160 176
432 82 1012.7117919921875 171 160 176
433 82 1011.1317749023438 166 155 171
434 82 1009.54833984375 166 157 174
435 82 1007.9617309570312 169 160 177
436 82 1006.3719482421875 164 156 171
437 82 1004.779052734375 162 154 169
438 82 1003.1832275390625 164 156 171
442 82 999.5513916015625 175 162 179
444 82 996.3034057617188 174 161 178
445 82 994.67578125 173 160 177
446 82 993.0460815429688 162 149 167
447 82 991.4141235351562 169 156 174
455 82 978.2908325195312 175 162 180
456 82 976.64306640625 169 154 173
457 82 974.9940185546875 178 163 182
458 82 973.34375 176 162 179
460 82 970.0396118164062 171 158 176
465 82 976.832275390625 170 157 175
467 82 973.358154296875 165 152 172
468 82 971.62060546875 164 151 171
486 82 933.6032104492188 175 156 178
528 82 889.1241455078125 166 142 174
546 82 866.7745361328125 148 130 170
566 82 840.7318725585938 158 146 184
612 82 748.8975219726562 159 164 193
645 82 701.1163330078125 182 187 209
646 82 699.8302612304688 180 186 208
647 82 698.5476684570312 170 176 198
648 82 697.2685546875 178 184 206
651 82 692.5568237304688 174 182 203
652 82 691.2965087890625 176 182 206
653 82 690.0396728515625 178 184 208
842 82 499.70166015625 161 144 178
909 82 458.6688232421875 173 179 203
967 82 425.08319091796875 201 202 222
1619 82 230.0082244873047 193 198 218
1636 82 227.40687561035156 180 185 205
1637 82 227.2401580810547 179 184 204
1661 82 223.31219482421875 188 191 210
1662 82 223.15142822265625 183 185 206
1664 82 222.83056640625 178 176 198
1665 82 222.6704864501953 178 175 196
1678 82 220.52978515625 180 168 192
1679 82 220.373046875 178 166 190
1680 82 220.21653747558594 178 164 189
1681 82 220.06024169921875 186 174 196
1695 82 217.9665069580078 166 154 176
1700 82 217.20394897460938 162 147 166
1702 82 216.89996337890625 161 144 163
1739 82 212.20774841308594 139 124 143
1758 82 209.47116088867188 117 105 129
1764 82 208.72186279296875 117 92 114
1766 82 208.4419403076172 119 104 127
1784 82 205.5161895751953 106 96 123
1790 82 204.85418701171875 101 88 114
1792 82 204.58377075195312 97 87 114
1793 82 204.44883728027344 99 89 114
1810 82 202.18504333496094 104 85 107
1812 82 201.9129180908203 96 78 104
1846 82 197.79159545898438 13 11 16
1847 82 197.6654510498047 9 8 13
1855 82 195.91358947753906 9 8 13
1856 82 195.78985595703125 12 13 15
1858 82 195.54428100585938 5 6 10
1859 82 195.42098999023438 10 11 15
116 83 1052.50146484375 6 8 7
118 83 1041.6229248046875 11 11 11
149 83 1158.811279296875 6 8 7
152 83 1164.8509521484375 6 8 7
153 83 1166.805419921875 6 8 7
157 83 1180.2879638671875 11 11 13
201 83 1113.185302734375 14 14 14
204 83 1105.9482421875 10 10 12
205 83 1107.0975341796875 8 8 10
206 83 1108.2362060546875 4 6 5
208 83 1110.4814453125 13 13 13
209 83 1111.5877685546875 6 6 6
219 83 1135.9781494140625 5 5 7
220 83 1136.9637451171875 6 6 8
221 83 1137.9364013671875 9 9 11
223 83 1138.8961181640625 17 15 16
241 83 1201.9913330078125 11 9 10
242 83 1202.54296875 12 12 14
244 83 1203.077392578125 8 8 10
245 83 1203.59423828125 10 10 12
246 83 1204.0936279296875 14 14 16
247 83 1204.575439453125 8 8 10
248 83 1205.0396728515625 2 3 5
254 83 1221.6888427734375 12 13 15
259 83 1221.3189697265625 16 17 19
266 83 1224.1732177734375 13 14 16
267 83 1224.3546142578125 6 7 9
269 83 1224.51708984375 4 8 9
270 83 1224.660400390625 10 11 15
271 83 1224.78466796875 7 8 12
272 83 1224.889892578125 13 14 18
273 83 1224.9759521484375 8 9 13
274 83 1225.04296875 12 12 14
275 83 1225.0908203125 9 9 11
276 83 1225.1195068359375 13 12 17
277 83 1225.1290283203125 10 9 14
278 83 1225.1195068359375 5 4 9
279 83 1225.0908203125 5 4 9
281 83 1224.889892578125 9 8 13
282 83 1224.78466796875 10 10 12
283 83 1224.660400390625 7 7 7
284 83 1224.51708984375 18 18 20
285 83 1224.3546142578125 11 11 13
286 83 1224.1732177734375 10 9 14
287 83 1224.51708984375 3 2 7
288 83 1224.3546142578125 11 10 15
289 83 1224.1732177734375 12 11 16
